# .PCD v0.7 - Point Cloud Data file format
VERSION 0.7
FIELDS x y z
SIZE 4 4 4
TYPE F F F
COUNT 1 1 1
WIDTH 712
HEIGHT 1
VIEWPOINT 0 0 0 1 0 0 0
POINTS 712
DATA ascii
0.39987001 -0.52583998 -1.4614
0.40276498 -0.52516496 -1.4662001
0.46682 -0.52345002 -1.4685
0.39965999 -0.52451003 -1.4529999
0.40051666 -0.52457833 -1.4541
0.45809001 -0.52280998 -1.4529999
0.40094805 -0.51606399 -1.45322
0.4018175 -0.50638503 -1.453475
0.46786001 -0.50266999 -1.4559
0.39932999 -0.53151 -1.4493999
0.39888 -0.520935 -1.4478
0.400832 -0.52512699 -1.4447401
0.39976001 -0.51178002 -1.4496
0.40164626 -0.5162375 -1.4454374
0.39938664 -0.50419003 -1.4429666
0.40120602 -0.505 -1.44488
0.46132001 -0.50105 -1.4468
0.40248623 -0.49522996 -1.444175
0.39989001 -0.50406998 -1.4365
0.40141726 -0.50582182 -1.4345728
0.39991 -0.49302 -1.4324
0.40127498 -0.4964475 -1.43325
0.39956999 -0.48410001 -1.4345
0.40122852 -0.48606285 -1.4341428
0.40153497 -0.47539002 -1.433275
0.46493 -0.47641999 -1.4353
0.40161997 -0.49445671 -1.426411
0.39956999 -0.48100501 -1.42765
0.40178332 -0.48623499 -1.4257833
0.39989001 -0.47893 -1.4215
0.40130141 -0.47474286 -1.4247714
0.45686999 -0.47389999 -1.4226
0.39989001 -0.46985999 -1.4245
0.401191 -0.46453103 -1.4230502
0.4023025 -0.45596749 -1.4225
0.46399999 -0.454135 -1.4225
-0.76577997 -0.54584002 -1.41125
0.4015927 -0.47450182 -1.4152727
0.40188378 -0.465725 -1.4153
0.40169004 -0.45457444 -1.4151111
0.40147498 -0.44669834 -1.4136666
-0.88603997 -0.54556 -1.4065
-0.86407495 -0.54368496 -1.4015501
-0.78069502 -0.54896498 -1.40695
-0.77427167 -0.54838496 -1.4040166
-0.76458335 -0.54438668 -1.4027333
-0.67888999 -0.53727001 -1.4001
0.40174598 -0.46409702 -1.40505
0.40209725 -0.45523825 -1.4051999
0.39967 -0.44600001 -1.4088
0.40166724 -0.44486368 -1.4046
0.40143752 -0.4354625 -1.4049876
-0.78402662 -0.55315334 -1.3964666
-0.76405287 -0.55278713 -1.3982857
-0.75516629 -0.55343497 -1.3978751
-0.76272249 -0.54479247 -1.3921
-0.75409389 -0.54475993 -1.3956555
-0.7464816 -0.54509002 -1.3931583
-0.68046999 -0.54993999 -1.3990999
-0.74702996 -0.53940004 -1.3939333
-0.67653 -0.53825003 -1.3938
-0.75093001 -0.52102 -1.3945
-0.74814999 -0.525805 -1.393
-0.68340003 -0.52302003 -1.3958
0.40232274 -0.44440547 -1.3944818
0.39968002 -0.43154502 -1.39485
0.40155101 -0.434457 -1.3947799
0.39995 -0.42715999 -1.3933001
0.40112001 -0.42364329 -1.3944334
0.39976999 -0.41729999 -1.3958499
0.40126127 -0.41420749 -1.393625
0.45975 -0.41508999 -1.3933001
-0.74394 -0.51863003 -1.3801
-0.68095005 -0.51463497 -1.3861001
-0.67978001 -0.516895 -1.38585
-0.68227506 -0.50928497 -1.38455
0.40222692 -0.42512691 -1.3857923
0.40166271 -0.41483727 -1.3847543
0.45583999 -0.41106999 -1.3849
0.401292 -0.404641 -1.3851299
0.40124288 -0.39577284 -1.3846999
-0.894445 -0.51388001 -1.3735
-0.85723001 -0.50817001 -1.373
-0.68083668 -0.50408 -1.3762668
-0.678536 -0.50659001 -1.3738
-0.84257001 -0.49144 -1.3746001
0.40245599 -0.415198 -1.37525
0.39930001 -0.40836 -1.3758
0.40170452 -0.40485182 -1.3750273
0.45616001 -0.40807 -1.38
0.39976001 -0.39507499 -1.3738999
0.40145701 -0.39541402 -1.3748801
0.39976001 -0.38749 -1.376
0.40141374 -0.38530251 -1.3741875
-0.88327003 -0.50389999 -1.3657
-0.87715 -0.49836001 -1.3679
-0.744425 -0.48217499 -1.3635
-0.68149996 -0.48459664 -1.3651333
-0.68102252 -0.47435752 -1.3628
-0.68488997 -0.4598 -1.3625
0.40210834 -0.3942425 -1.364875
0.452115 -0.393365 -1.36795
0.39983001 -0.38999999 -1.3686
0.40142003 -0.38448 -1.3656909
0.39989001 -0.37035 -1.3674001
0.40194547 -0.37495545 -1.3647819
-0.86773002 -0.49070999 -1.3593
-0.84676999 -0.49491999 -1.3585
-0.83025998 -0.48282 -1.3545001
-0.82977003 -0.48796999 -1.3518
-0.68067002 -0.47732002 -1.3561001
-0.67858166 -0.47502831 -1.3530334
-0.85367 -0.463085 -1.352
-0.68169498 -0.46464503 -1.35655
-0.67891997 -0.46761498 -1.352175
-0.68270499 -0.45526999 -1.3558
-0.67992997 -0.45903999 -1.3512
0.40210551 -0.37501544 -1.3553727
0.40182999 -0.36501083 -1.3542833
0.45765001 -0.36074001 -1.3586
0.40234503 -0.35448167 -1.354025
-0.85265499 -0.47723001 -1.3452499
-0.85601997 -0.46788999 -1.3464
-0.83256 -0.46285999 -1.3491
-0.68093002 -0.46052 -1.3467
-0.67885602 -0.46551999 -1.3464599
-0.82981998 -0.45561001 -1.3411
-0.68070334 -0.45523 -1.3459333
-0.67906797 -0.45446199 -1.3457
-0.680776 -0.44425201 -1.34436
-0.67927665 -0.44675002 -1.3413
0.40258753 -0.36458752 -1.3448251
0.40250441 -0.35558441 -1.347
0.45282999 -0.35655999 -1.3484
0.39989999 -0.34347999 -1.3478
0.402311 -0.34437197 -1.3439699
0.39985001 -0.33519 -1.3432
0.40172625 -0.33518878 -1.3447875
-0.83376002 -0.45852 -1.3365
-0.81770003 -0.4551 -1.3352
-0.67877203 -0.44568601 -1.3355801
-0.68028998 -0.43774498 -1.33435
-0.67892337 -0.43435499 -1.3343834
-0.68217242 -0.42588747 -1.3364
-0.67975003 -0.42682999 -1.3306
0.4026857 -0.34522858 -1.3350356
0.39978001 -0.33230001 -1.3372999
0.40225154 -0.33456308 -1.3346769
0.40224558 -0.32578689 -1.3332188
0.45809999 -0.32139 -1.3334
-0.80563998 -0.43002 -1.3265001
-0.74246001 -0.43239999 -1.3293999
-0.68024999 -0.42673999 -1.3257999
-0.67859668 -0.42509332 -1.3255666
-0.74671996 -0.41221499 -1.3275501
-0.68099999 -0.41704333 -1.3265667
-0.67888999 -0.41571999 -1.3247499
-0.68191999 -0.40508997 -1.3244333
-0.67818999 -0.40933999 -1.3207
0.40348089 -0.32607362 -1.3251637
0.40257612 -0.31504005 -1.3251922
0.40280133 -0.304802 -1.3250133
-0.80787998 -0.42379001 -1.3115
-0.67792344 -0.41531223 -1.3156111
-0.67880505 -0.40566501 -1.3144001
-0.78179997 -0.39434999 -1.3144
-0.68167502 -0.39548999 -1.318
-0.67824668 -0.39722002 -1.3128333
0.40328753 -0.30567417 -1.3149167
0.40225908 -0.29516548 -1.3147727
0.45831001 -0.29260999 -1.3174
0.40266535 -0.28530401 -1.3139
-0.80239999 -0.40656 -1.3069
-0.78257 -0.40567499 -1.3045
-0.80304003 -0.39221999 -1.3073
-0.79841 -0.39916 -1.302
-0.67683452 -0.39461002 -1.3026453
-0.80517 -0.38668999 -1.3077
-0.67727214 -0.38510668 -1.3027889
-0.67636228 -0.37474886 -1.3044889
-0.67095 -0.36221999 -1.3012
0.40312201 -0.28498 -1.3046401
0.403433 -0.27500701 -1.3057601
-0.80328 -0.39732 -1.296
-0.79690999 -0.39971 -1.2991
-0.76915002 -0.38404 -1.2938
-0.68070334 -0.38574335 -1.295
-0.67800754 -0.38475621 -1.2963749
-0.68017 -0.37307 -1.2901
-0.67698687 -0.37512791 -1.2950001
-0.78794003 -0.36820999 -1.2921
-0.68109 -0.36346 -1.2926199
-0.67534089 -0.36561862 -1.2929682
-0.66859496 -0.36543 -1.2952
-0.74739999 -0.35411999 -1.2922
-0.68138665 -0.35677668 -1.2917668
-0.67830664 -0.35807002 -1.2922333
0.40329763 -0.26525465 -1.2961385
0.40235126 -0.25465751 -1.2944688
0.45697001 -0.25742999 -1.2995
-0.76170999 -0.37000999 -1.2891001
-0.73760998 -0.37272999 -1.2889
-0.68031502 -0.37367249 -1.2861
-0.68059254 -0.36539248 -1.2862999
-0.67677796 -0.36583602 -1.28602
-0.66770804 -0.36174601 -1.2875799
-0.78345329 -0.35521331 -1.2876667
-0.68141854 -0.35523716 -1.2875715
-0.67616934 -0.35371399 -1.2866265
-0.66649646 -0.3547059 -1.2857118
-0.68031335 -0.34622666 -1.2832667
-0.67547864 -0.34496093 -1.2834857
-0.66753054 -0.3458671 -1.2832117
-0.67349005 -0.3364825 -1.2818333
-0.66950995 -0.3361133 -1.2829667
0.40317813 -0.24439873 -1.2854435
-0.75533336 -0.36346665 -1.2756
-0.77135998 -0.35512999 -1.2758
-0.75505 -0.35512999 -1.2758
-0.68036669 -0.35510668 -1.2773666
-0.67868245 -0.35489124 -1.2743
-0.75212997 -0.34543997 -1.273
-0.74136001 -0.34862 -1.2771
-0.73872 -0.34167999 -1.27395
-0.68055999 -0.34262002 -1.27755
-0.67785913 -0.34509334 -1.2761749
-0.66643 -0.34898001 -1.2783999
-0.77199 -0.3364 -1.2721
-0.75261998 -0.33239999 -1.2774
-0.74648666 -0.33289668 -1.2725
-0.68080747 -0.33683121 -1.27495
-0.67507219 -0.33431956 -1.2766608
-0.68111002 -0.32688999 -1.2722
-0.67411333 -0.32463995 -1.2741199
-0.66947335 -0.32747331 -1.2769834
-0.67470998 -0.31822166 -1.27345
-0.75990999 -0.34219 -1.2634
-0.76899999 -0.33634001 -1.2667
-0.75133997 -0.33188999 -1.2652
-0.74476004 -0.33275667 -1.2667999
-0.73285002 -0.33322001 -1.2601
-0.68041831 -0.33418167 -1.2662499
-0.67890626 -0.33626503 -1.2645249
-0.76089001 -0.32492 -1.2697001
-0.75207496 -0.32591 -1.2681
-0.74320006 -0.32600498 -1.264625
-0.73632002 -0.32986999 -1.2625
-0.68083 -0.32475001 -1.2648
-0.67837596 -0.32420868 -1.2658268
-0.74191999 -0.31992999 -1.2607
-0.73891997 -0.31847 -1.2604001
-0.68013501 -0.31507 -1.2653
-0.67753386 -0.31524387 -1.2651277
-0.67707163 -0.30725831 -1.2626667
-0.75042999 -0.33151001 -1.2587
-0.73439997 -0.33022001 -1.2588
-0.74328685 -0.32386461 -1.2554615
-0.73895746 -0.32268 -1.2569749
-0.68001997 -0.32449502 -1.2549
-0.74199748 -0.31691998 -1.2555
-0.73687994 -0.31794 -1.25555
-0.68062001 -0.31535333 -1.2584666
-0.6787473 -0.31568635 -1.2545365
-0.74155003 -0.30869001 -1.2531
-0.68065751 -0.30353749 -1.25375
-0.67804468 -0.30540174 -1.2559531
-0.74472666 -0.29653001 -1.2538
-0.67786533 -0.29598266 -1.2541268
-0.67590666 -0.28606498 -1.2533333
-0.74432999 -0.31384999 -1.2472
-0.73741859 -0.31259283 -1.2459286
-0.74212003 -0.30559 -1.2405
-0.73561996 -0.30561221 -1.2435112
-0.68048668 -0.30382666 -1.244
-0.67869538 -0.30557802 -1.2446934
-0.742365 -0.293845 -1.24615
-0.73965001 -0.29205 -1.244
-0.68033665 -0.29507002 -1.2458
-0.67856467 -0.29490536 -1.244754
-0.74014997 -0.28996 -1.2407
-0.73817003 -0.28896001 -1.2421
-0.68134999 -0.28375 -1.2422
-0.67725617 -0.28490567 -1.2453619
-0.68044001 -0.27961001 -1.2413
-0.67755687 -0.27596629 -1.2434106
-0.73126 -0.30302 -1.2379999
-0.73402798 -0.29631001 -1.23472
-0.74207997 -0.28760999 -1.2307
-0.73631752 -0.28567499 -1.2336
-0.72981 -0.28788999 -1.2319
-0.68033999 -0.28346002 -1.23525
-0.67831939 -0.28535819 -1.2351824
-0.68102998 -0.27694499 -1.2381001
-0.6788736 -0.27420503 -1.2337428
-0.67778689 -0.26519844 -1.2350192
0.41480678 -0.19501643 -1.2341394
0.43453789 -0.19497429 -1.2355537
0.41501668 -0.18892334 -1.2307833
-0.68083 -0.27425751 -1.2261001
-0.68082625 -0.26364499 -1.2253751
-0.67899817 -0.2649782 -1.2256274
-0.73653001 -0.25512001 -1.2234
-0.68071997 -0.25437498 -1.2228999
-0.67683887 -0.25484705 -1.2246059
-0.67532927 -0.24509929 -1.2236
0.41472518 -0.18433705 -1.2278333
0.42491934 -0.18239643 -1.2278215
0.43536916 -0.18257 -1.2287
0.41511518 -0.17511934 -1.2234414
0.42449152 -0.17469326 -1.2235451
0.43441227 -0.17482999 -1.2244601
0.42507336 -0.16691999 -1.2204
0.4360275 -0.16695583 -1.2212584
-0.67825365 -0.25445998 -1.2164181
-0.68027997 -0.24293001 -1.2133666
-0.67748654 -0.2447533 -1.2160074
-0.68085998 -0.23589249 -1.21155
-0.67764938 -0.23476951 -1.2150148
-0.68014997 -0.22406 -1.2136
-0.67601269 -0.2253079 -1.2143368
0.40863001 -0.17141999 -1.2194999
0.41095001 -0.17141999 -1.2194999
0.40745813 -0.16348562 -1.2164311
0.41467521 -0.16467476 -1.2167809
0.42421773 -0.1646263 -1.2176669
0.43387768 -0.16444823 -1.2181351
0.41504157 -0.15558344 -1.2122499
0.4254809 -0.15505467 -1.2142873
0.43512267 -0.155278 -1.2144666
0.42162001 -0.14914 -1.2106
-0.6809715 -0.22554712 -1.2036428
-0.67822051 -0.22447698 -1.206165
-0.68088669 -0.21502556 -1.2027888
-0.67645407 -0.21452907 -1.2060001
-0.68076879 -0.20497555 -1.2012889
0.40964001 -0.15202001 -1.2093
0.41426003 -0.15263501 -1.20925
0.42814001 -0.15019999 -1.2096
0.43277001 -0.15019999 -1.2095
0.41438198 -0.1450671 -1.2057387
0.4246577 -0.14477038 -1.2072538
0.43415728 -0.14415862 -1.2078592
0.44235498 -0.14281249 -1.207275
0.41578296 -0.13719708 -1.2026412
0.42399761 -0.13658287 -1.202843
0.4345448 -0.13531961 -1.2030959
0.42287999 -0.12982 -1.2011
0.43654665 -0.12916332 -1.2007
-0.73246998 -0.22521999 -1.1999
-0.73368001 -0.21209 -1.1956
-0.68067503 -0.214645 -1.1956298
-0.68103337 -0.20590891 -1.1955667
-0.67409599 -0.20356998 -1.19749
-0.668145 -0.20104 -1.19945
-0.66883999 -0.1999 -1.1964
0.406367 -0.13187699 -1.19787
0.41350156 -0.13288078 -1.1988385
0.42482764 -0.13234922 -1.198954
0.43589202 -0.132458 -1.199
0.44040999 -0.1331 -1.1987
0.40640068 -0.12491075 -1.1961555
0.41478679 -0.12478178 -1.1954472
0.42547503 -0.12510645 -1.1968822
0.43435687 -0.12409817 -1.1968226
0.44064751 -0.125055 -1.198875
0.41584164 -0.1164408 -1.191872
0.42562875 -0.11568167 -1.1926501
0.44178998 -0.11607376 -1.1951125
-0.6808117 -0.19540167 -1.1865
-0.67914617 -0.19453308 -1.1857307
-0.68129927 -0.18479286 -1.1852
-0.67878002 -0.18570144 -1.1858143
-0.73523998 -0.17952 -1.1823
0.42494428 -0.095563479 -1.1814381
0.4355 -0.09543556 -1.182292
0.44203442 -0.09475711 -1.1837333
0.43595999 -0.089497 -1.1802
-0.68112165 -0.17467499 -1.1756834
-0.67880929 -0.17439856 -1.1750429
-0.68132704 -0.16470215 -1.1754285
0.40685913 -0.092851914 -1.17845
0.41456291 -0.093208179 -1.1785476
0.42541614 -0.092968151 -1.1785769
0.43277669 -0.093493998 -1.1789333
0.40650037 -0.084455207 -1.1754035
0.41486999 -0.084864408 -1.1744875
0.42459205 -0.085122868 -1.1746737
0.43448085 -0.084632978 -1.1752582
0.442 -0.082619667 -1.1768833
0.41500297 -0.076889701 -1.1715765
0.42457867 -0.077209622 -1.1718751
0.43516406 -0.077190772 -1.1728728
-0.68124199 -0.154814 -1.1644
-0.67923921 -0.15567334 -1.164975
0.40714332 -0.073134325 -1.1681833
0.41494745 -0.073279314 -1.1686188
0.42427209 -0.07340011 -1.1684999
0.43392667 -0.072221175 -1.1678333
0.44038999 -0.073307 -1.1677999
0.40643734 -0.064360127 -1.1649934
0.41470852 -0.065350041 -1.1635332
0.42479447 -0.064849205 -1.1649138
0.43472001 -0.065167747 -1.1656615
0.44232601 -0.064548403 -1.16763
0.41487858 -0.053345431 -1.1605715
0.4249056 -0.056087214 -1.161411
0.43533403 -0.057245094 -1.16117
-0.73260665 -0.14447333 -1.1568333
-0.68105251 -0.1354925 -1.1554625
-0.67898726 -0.13442272 -1.154909
0.40748 -0.06079933 -1.1598333
0.41229999 -0.060619 -1.15985
0.40729502 -0.053156834 -1.1579417
0.41460735 -0.055300768 -1.1585424
0.42506677 -0.053572681 -1.1575409
0.43492189 -0.053617902 -1.1583667
0.44314998 -0.051995501 -1.1589501
0.41474313 -0.045327336 -1.1541966
0.42497495 -0.045078188 -1.1552498
0.43470505 -0.044893313 -1.1553625
0.44143 -0.043595999 -1.1557714
0.41544399 -0.037157007 -1.1516101
0.42343 -0.037533458 -1.1518461
0.43488526 -0.036489289 -1.1521351
-0.67903 -0.11469667 -1.1436918
0.41135502 -0.041053999 -1.15
0.43465 -0.041046999 -1.1497999
0.40775275 -0.035081945 -1.1478666
0.41470617 -0.033649001 -1.1472576
0.426047 -0.03339133 -1.1478374
0.43525046 -0.034354847 -1.148145
0.44160667 -0.033336665 -1.1489667
0.41524404 -0.025037309 -1.1441027
0.42521659 -0.024816256 -1.1445026
0.43501747 -0.025179373 -1.1447288
0.44253302 -0.0240728 -1.14685
0.41503555 -0.018248109 -1.1416111
0.42583275 -0.017532364 -1.1409364
0.43551549 -0.016930182 -1.1419909
0.44332001 -0.015063908 -1.1413273
0.40814501 -0.020722 -1.1398
0.41097999 -0.020178 -1.1389
0.42905 -0.020191999 -1.1397001
0.43125999 -0.0207195 -1.1397001
0.40788877 -0.01365275 -1.137525
0.41501033 -0.014165279 -1.1374559
0.42470965 -0.014037223 -1.1374739
0.43534547 -0.014399501 -1.138835
0.44261855 -0.013032714 -1.1388857
0.4061766 -0.0047965469 -1.134789
0.41507077 -0.005389852 -1.13361
0.42520389 -0.0052723885 -1.1334977
0.43479389 -0.0060982322 -1.1344485
0.44268501 -0.0039977334 -1.1354333
0.41496801 0.0018132289 -1.13065
0.42557731 0.0025116494 -1.1316202
0.43288803 0.0035336199 -1.1304001
0.29532498 -0.00528645 -1.123
0.30138999 -0.0052876999 -1.1233
0.36451 -0.0041425498 -1.1251
0.40817001 -0.00087996002 -1.1293
0.41643 -0.00087926001 -1.1284
0.43595287 -0.00147384 -1.1295713
0.40768403 0.0061697201 -1.12722
0.41494575 0.0055680331 -1.1270417
0.42503184 0.0063383351 -1.1280591
0.43460053 0.0050070593 -1.1276206
0.44126797 0.0059792395 -1.12854
0.41497114 0.014901591 -1.1230707
0.42461029 0.014612976 -1.1230503
0.43534631 0.01496605 -1.1232074
0.090553001 -0.0096672997 -1.1161
0.30840001 -0.0052538002 -1.1161
0.40965 0.015383 -1.1194501
0.41833001 0.019419 -1.1194
0.42519599 0.017565599 -1.1191599
0.41466713 0.025594261 -1.1162838
0.42445639 0.025385823 -1.1170032
0.43478793 0.025714817 -1.1175668
-0.10038 -0.014092 -1.102
-0.0558635 -0.012952 -1.1041501
0.1461 -0.0084899999 -1.11
0.43281999 0.039009001 -1.1091666
0.31480667 0.04097667 -1.1006666
0.34843001 0.042089 -1.1009001
0.42524418 0.04148525 -1.1072251
0.43509799 0.041912604 -1.1062866
0.44186997 0.040763203 -1.1071399
0.45697001 0.044243999 -1.1008
0.46260667 0.046626329 -1.1039
-0.69504225 -0.073132612 -1.0972782
-0.6860773 -0.073596232 -1.09825
-0.678846 -0.071826205 -1.09816
-0.69505 -0.065606251 -1.0937872
-0.3012 -0.019386001 -1.0943
-0.29870501 -0.0193955 -1.0948
-0.272315 -0.018352 -1.0969501
-0.26779002 -0.0183315 -1.0957501
-0.25795999 -0.018292001 -1.0934
-0.225025 -0.01730625 -1.0948751
-0.18162501 -0.016143 -1.0992
0.11476 0.036290001 -1.09285
0.14735 0.037353665 -1.0932001
0.15425001 0.037328001 -1.0924667
0.19808668 0.038502 -1.0948
0.204862 0.038441997 -1.09308
0.247795 0.039704002 -1.09655
0.25421003 0.039684601 -1.09598
0.26513335 0.039761335 -1.0981001
0.27311999 0.040607002 -1.0907
0.28602251 0.040646501 -1.0917749
0.29905 0.040860999 -1.0975
0.30336332 0.040780004 -1.0953332
0.31603497 0.041531999 -1.093575
0.32350999 0.043130666 -1.0902333
0.33544889 0.043544665 -1.0916555
0.34309286 0.043038856 -1.0937427
0.35324669 0.045379996 -1.0922667
0.36648375 0.044560373 -1.0909874
0.37310287 0.044351142 -1.0912286
0.38597003 0.044695567 -1.0920213
0.39484471 0.045697346 -1.0923392
0.405763 0.045618746 -1.0921501
0.41513926 0.04553096 -1.0934078
0.42474666 0.046553142 -1.0924382
0.43481407 0.04526731 -1.0934818
0.44490522 0.046789832 -1.0936838
0.45318937 0.046724688 -1.0933688
0.46065 0.048009001 -1.0973001
-0.69492 -0.060826 -1.0898
-0.35293001 -0.020205 -1.0836999
-0.33785 -0.020260001 -1.0867
-0.13144 0.03046 -1.08
-0.10522 0.031556666 -1.0806
-0.094155751 0.031586997 -1.0816
-0.084699839 0.031628501 -1.0830334
-0.060906 0.032692 -1.0819
-0.055133168 0.032704499 -1.0823001
-0.045096666 0.032789838 -1.08515
-0.035112333 0.032822333 -1.0862167
-0.027622668 0.032837335 -1.0867
-0.0026069535 0.033956666 -1.0875
0.0048498586 0.033943001 -1.0870668
0.014629333 0.033876996 -1.08495
0.029856 0.034802999 -1.08
0.036967669 0.034900997 -1.0830334
0.046379998 0.034937501 -1.084175
0.055235997 0.035023499 -1.0868
0.068071499 0.035949998 -1.0826
0.074852169 0.035948832 -1.0825833
0.083746001 0.035870999 -1.0802
0.096041247 0.036069252 -1.0861751
0.10455334 0.036961671 -1.0817333
0.11796 0.039108001 -1.0801001
0.12579401 0.037040599 -1.08406
0.1328125 0.037746999 -1.080675
0.14478858 0.037907001 -1.0822715
0.15582833 0.037992001 -1.0851166
0.16528222 0.03856267 -1.0822778
0.17556334 0.03841633 -1.0816666
0.18444625 0.038460374 -1.085575
0.19550832 0.039044 -1.0835167
0.20488 0.039166998 -1.0816801
0.21595834 0.039285664 -1.0849668
0.22617602 0.039300002 -1.0853599
0.2345625 0.039307751 -1.0855751
0.24143499 0.039440498 -1.0892501
0.099491999 0.041363999 -1.082
0.10113 0.041351002 -1.0816
0.12438 0.041348502 -1.0816
0.13952 0.040321998 -1.0831
0.14440888 0.041444778 -1.0808778
0.16387273 0.040950906 -1.081491
0.18166001 0.041358002 -1.0821249
0.23486689 0.043287624 -1.0827761
0.44499999 0.042582501 -1.08575
-0.60443997 -0.027531 -1.0724
-0.57327002 -0.026569 -1.0764
-0.56729001 -0.026478 -1.0727
-0.244296 0.028097799 -1.0715001
-0.2111 0.029139999 -1.0707
-0.20547833 0.029172001 -1.0718666
-0.19571833 0.029197166 -1.0727834
-0.186125 0.029273501 -1.0756
-0.161265 0.030231999 -1.07195
-0.154865 0.030291164 -1.0740167
-0.14482601 0.030421 -1.0786201
-0.136198 0.030353 -1.0762401
-0.122185 0.031284999 -1.0713
-0.11393599 0.031983599 -1.0729301
-0.10570834 0.032641668 -1.0745167
-0.095392004 0.031514499 -1.0791
-0.073072128 0.033724125 -1.0718501
-0.066328645 0.033531718 -1.0740355
-0.044322893 0.036277667 -1.0711778
-0.033828698 0.035115004 -1.0721501
-0.024423633 0.03519747 -1.0716579
-0.014740095 0.035862189 -1.072219
-0.0055514215 0.036883835 -1.0729874
0.004274583 0.036748078 -1.0727923
0.014935895 0.036255002 -1.0716946
0.025337962 0.036916737 -1.0737001
0.034602184 0.037100218 -1.0745223
0.043896347 0.037035398 -1.0721799
0.055395152 0.03762627 -1.0737692
0.064715587 0.037621543 -1.0747272
0.075029299 0.038013604 -1.07427
0.085007712 0.037858102 -1.0757391
0.095043719 0.038089715 -1.0751237
0.10508666 0.038332447 -1.0740111
0.11504666 0.03774073 -1.07688
0.12531142 0.038784284 -1.0757072
0.13414501 0.038011856 -1.0760143
0.14515857 0.039183855 -1.0778428
0.15425301 0.038576499 -1.07786
0.16912499 0.039062999 -1.0788
0.17354 0.038500499 -1.0787834
0.18615831 0.039228 -1.0783333
-0.70156002 -0.020966001 -1.0692
-0.486375 0.022571001 -1.06125
-0.47272667 0.022596 -1.0624334
-0.42539665 0.023621665 -1.0614501
-0.41510573 0.023714 -1.0655857
-0.39183 0.024700001 -1.0627
-0.38603833 0.024795333 -1.0668334
-0.37588802 0.0247616 -1.0653999
-0.35157502 0.025748499 -1.0627
-0.34482834 0.025763502 -1.0633334
-0.33843499 0.025808999 -1.0652001
-0.31501332 0.027264668 -1.0622444
-0.30582249 0.026801251 -1.0625751
-0.29239666 0.026757335 -1.0608333
-0.28433499 0.027591251 -1.062325
-0.27466425 0.028607426 -1.0622572
-0.26556572 0.028613141 -1.0625286
-0.25297335 0.029426331 -1.06205
-0.24610887 0.029021002 -1.0621222
-0.23887332 0.029587334 -1.0614333
-0.22467287 0.028891999 -1.0615714
-0.21580002 0.029289857 -1.0651858
-0.20260501 0.029927 -1.0611
-0.19696333 0.02994 -1.0615667
-0.18309 0.029913001 -1.0606
-0.17515001 0.0299615 -1.06235
-0.16776499 0.0299215 -1.06095
-0.27401999 0.030977 -1.0607001
-0.19420415 0.032798704 -1.0635376
-0.17548163 0.033282217 -1.0638055
-0.65612 0.018227 -1.0506999
-0.62988001 0.019267 -1.0501
-0.6146757 0.019321857 -1.0531286
-0.56521249 0.02038575 -1.0548251
-0.55752331 0.02036 -1.0535001
-0.54022002 0.021317 -1.0505
-0.53784001 0.021340501 -1.0517
-0.52514994 0.021950856 -1.0528142
-0.51680833 0.021440668 -1.0566167
-0.49099499 0.022896999 -1.05225
-0.48679724 0.024404455 -1.0539727
-0.47352779 0.023646444 -1.0522444
-0.4642837 0.025853999 -1.050725
-0.455028 0.023381401 -1.05062
-0.4351486 0.025621664 -1.0532526
-0.42332998 0.02627689 -1.0508332
-0.41583925 0.026441446 -1.0528555
-0.40431252 0.026436899 -1.052165
-0.3949579 0.026817083 -1.0527707
-0.38568184 0.027311087 -1.0544273
-0.36470076 0.027524078 -1.0547038
-0.35576847 0.027755307 -1.055577
-0.34508169 0.028111957 -1.0538832
-0.33496639 0.028123362 -1.0545501
-0.32488164 0.028327117 -1.054752
-0.31604931 0.028644733 -1.0577267
-0.30495301 0.028539997 -1.056495
-0.29495838 0.028359476 -1.0543104
-0.28545332 0.028937221 -1.0569278
-0.27623498 0.029876251 -1.059325
-0.26425272 0.028997909 -1.0585454
-0.25565839 0.028543917 -1.0584666
-0.24651666 0.029140001 -1.0578667
-0.23364666 0.029264221 -1.0582001
-0.22517 0.029874166 -1.0592333
-0.214865 0.02984925 -1.05835
-0.20242999 0.0298845 -1.0596
-0.1917 0.029832667 -1.0577666
-0.16768999 0.029894 -1.0599
-0.72139001 0.018045999 -1.0402
-0.71349335 0.015119166 -1.0462084
-0.70530707 0.016454857 -1.0452143
-0.69507456 0.016805092 -1.0454545
-0.68512726 0.017766183 -1.0440545
-0.67404503 0.0181165 -1.043275
-0.66513664 0.018478891 -1.0451778
-0.65455401 0.0185632 -1.046
-0.64685333 0.018149002 -1.0462333
-0.63526165 0.019169169 -1.0447832
-0.62176996 0.01917875 -1.0453
-0.69866002 0.020613 -1.0406001
-0.6559875 0.0211375 -1.041625
-0.6137867 0.021907933 -1.04242
-0.60525554 0.022014223 -1.0425611
-0.72195804 0.017398398 -1.0383799
-0.71450317 0.018017437 -1.035725
-0.70455003 0.01836911 -1.0384444
-0.695445 0.018516252 -1.0374751
-0.68569005 0.0190454 -1.03802
-0.67403138 0.018738715 -1.0376858
-0.66745663 0.019368665 -1.0372667
-0.65540999 0.019062335 -1.0389667
-0.64409 0.019046666 -1.0381333
-0.636015 0.019060999 -1.0389
