# .PCD v0.7 - Point Cloud Data file format
VERSION 0.7
FIELDS x y z
SIZE 4 4 4
TYPE F F F
COUNT 1 1 1
WIDTH 441
HEIGHT 1
VIEWPOINT 0 0 0 1 0 0 0
POINTS 441
DATA ascii
0.76463807 -0.33595401 -1.68144
0.77356339 -0.33546999 -1.6817333
0.75611001 -0.32960001 -1.6813999
0.763156 -0.32567799 -1.6833799
0.77601004 -0.31867498 -1.6840501
0.78229749 -0.31558999 -1.6812999
0.73268998 -0.39030999 -1.6777
0.72411001 -0.34408501 -1.6728001
0.73507124 -0.34480998 -1.6752625
0.74621856 -0.3425743 -1.6735001
0.75967002 -0.34024 -1.6727
0.73579001 -0.33717999 -1.6748
0.74408668 -0.33587334 -1.6775001
0.75479996 -0.33684751 -1.677525
0.76600283 -0.33622715 -1.6767429
0.77390254 -0.33242249 -1.6758499
0.75621498 -0.32668501 -1.67555
0.76575297 -0.32421601 -1.67396
0.77797002 -0.32041001 -1.6709
0.78376997 -0.32054999 -1.6716501
0.77452832 -0.31887832 -1.6747166
0.78574091 -0.31750455 -1.6766636
0.69423997 -0.40204 -1.6605999
0.70379001 -0.39826 -1.6669
0.6929 -0.35345 -1.6619999
0.71836662 -0.35282996 -1.6671333
0.72443432 -0.35303858 -1.6669856
0.70719004 -0.347105 -1.6645
0.71752995 -0.34532142 -1.6619002
0.72459084 -0.3458091 -1.6643363
0.73354 -0.34701332 -1.664
0.7464 -0.3426275 -1.6638501
0.75102997 -0.34062499 -1.66635
0.72838002 -0.33746001 -1.6672
0.73110002 -0.33717999 -1.6658
0.74623001 -0.33068001 -1.6693
0.75327003 -0.33509499 -1.6651001
0.75854999 -0.32586998 -1.6669
0.76629126 -0.32493502 -1.6666125
0.77280998 -0.31987 -1.6681
0.68519002 -0.41262001 -1.6535
0.68791002 -0.40564999 -1.6538
0.69471002 -0.39899001 -1.6553
0.71743 -0.38521001 -1.6558
0.67464 -0.35890502 -1.65475
0.68297005 -0.35311002 -1.6523499
0.69537669 -0.35387668 -1.6531833
0.70492667 -0.35554501 -1.6514333
0.71322 -0.35292 -1.6514
0.72510999 -0.35255 -1.6578
0.69453335 -0.34863332 -1.6525999
0.70410424 -0.3451986 -1.6529429
0.71147001 -0.34441 -1.6599
0.72640997 -0.34847 -1.6545
0.73397601 -0.34540203 -1.6562999
0.72229999 -0.33346 -1.6562999
0.618025 -0.42072499 -1.64745
0.62532127 -0.42542312 -1.6460063
0.63238794 -0.42687002 -1.64186
0.65683001 -0.42678499 -1.64355
0.62213194 -0.41558594 -1.6425202
0.66404998 -0.41876999 -1.6431333
0.67888999 -0.41442999 -1.647
0.61372524 -0.40523353 -1.6440823
0.62555271 -0.38422793 -1.6446
0.63444138 -0.38096714 -1.6440144
0.64112002 -0.382085 -1.64235
0.63739753 -0.37896502 -1.645775
0.64508718 -0.37617141 -1.6446142
0.65811002 -0.36256999 -1.64405
0.67451167 -0.35804167 -1.6443499
0.68519747 -0.3537325 -1.6429999
0.68878996 -0.34887499 -1.6445
0.69536799 -0.348396 -1.6461599
0.70289743 -0.34814751 -1.6489999
0.86158001 0.22532 -1.6431
0.84828001 0.27656999 -1.6497
0.83875 0.28413001 -1.6447999
0.84669667 0.28934002 -1.6449
0.84466279 0.29306287 -1.6426142
0.84512424 0.30629143 -1.6444143
0.85148335 0.30243668 -1.6423334
0.84375006 0.3168 -1.6433376
0.84464997 0.32493201 -1.6421601
0.84282398 0.33548 -1.64188
0.63714999 -0.43015999 -1.6398
0.64300001 -0.43134999 -1.6377667
0.65057999 -0.43184 -1.6396
0.58805001 -0.42348999 -1.6341
0.62918001 -0.42373502 -1.6385
0.63539141 -0.42394498 -1.6355287
0.62601423 -0.4149029 -1.6374357
0.63332927 -0.41528934 -1.6324266
0.59180999 -0.40726 -1.632
0.61818624 -0.40360999 -1.6383374
0.62482238 -0.40495482 -1.6353811
0.63179398 -0.40673003 -1.6326599
0.61875498 -0.39547166 -1.6382833
0.62342435 -0.39346573 -1.6334144
0.63233668 -0.39268669 -1.6327667
0.60503 -0.38455999 -1.6381
0.62529004 -0.38734081 -1.6353917
0.63442427 -0.38512996 -1.6348572
0.64115667 -0.38355336 -1.6338334
0.6426416 -0.37664834 -1.6351
0.64925504 -0.36577499 -1.6352501
0.65616 -0.35942999 -1.6337
0.61590999 -0.34277001 -1.6355
0.67793 -0.13689999 -1.6314
0.85168004 0.28887334 -1.6390667
0.86662745 0.28824997 -1.6338999
0.84779 0.29679999 -1.6393
0.85177004 0.29391497 -1.6373501
0.86557996 0.29444999 -1.6356
0.83348 0.30851001 -1.6377
0.84938002 0.30581 -1.6372499
0.85380334 0.30612335 -1.6373667
0.86450499 0.30733499 -1.6315
0.81553745 0.31830502 -1.6346999
0.82238001 0.31972 -1.6353
0.84726 0.31217998 -1.6356
0.85628003 0.317554 -1.63482
0.83750993 0.32525334 -1.6371666
0.84324503 0.32629001 -1.63835
0.85281998 0.32391 -1.6348751
0.83477861 0.3354843 -1.6380999
0.84541571 0.33550143 -1.6352857
0.85389167 0.33315167 -1.6322333
0.83520848 0.34513155 -1.6361463
0.84465992 0.34436002 -1.6336924
0.85548496 0.34185499 -1.631
0.83524549 0.35523823 -1.6340001
0.84388 0.35303301 -1.63322
0.83439445 0.38646775 -1.6329665
0.84293002 0.38705999 -1.6307
0.8310234 0.39525333 -1.6313667
0.83276498 0.40152001 -1.63175
0.58091003 -0.42930001 -1.6234
0.62587112 -0.39675224 -1.6284112
0.6652 -0.19063 -1.627
0.68435001 -0.10703 -1.6269
0.86053002 0.33864 -1.6279
0.836945 0.34363002 -1.6273501
0.84354502 0.34323502 -1.6293
0.85507452 0.34499276 -1.6269271
0.82874 0.35363999 -1.6267
0.83454007 0.35613999 -1.6278
0.84632874 0.35510623 -1.627525
0.85362774 0.35494775 -1.6265111
0.82427502 0.3838425 -1.6277502
0.83371592 0.38486499 -1.62376
0.84476811 0.38425729 -1.6254818
0.85096002 0.38444501 -1.6231999
0.82716995 0.39471665 -1.6290666
0.834741 0.39515498 -1.624509
0.84639448 0.39475 -1.6243666
0.85308999 0.393635 -1.6214499
0.82795602 0.40646601 -1.62546
0.83590126 0.40529603 -1.6243132
0.84455603 0.40548801 -1.6227601
0.85095 0.40689 -1.62075
0.82504672 0.41137335 -1.6254667
0.83620226 0.4150762 -1.6253153
0.84340751 0.41506872 -1.6222626
0.824045 0.42105001 -1.6244
0.83654332 0.42368832 -1.6221666
0.84293002 0.42769 -1.6205
0.83436996 0.44298336 -1.6205667
0.57460999 -0.43393001 -1.6149
0.58301997 -0.41231 -1.6178
0.67176998 -0.12556 -1.6141
0.82982999 0.37873 -1.6168
0.83666003 0.38776001 -1.62
0.84329498 0.38217998 -1.6171
0.83856601 0.39562196 -1.6176199
0.84506875 0.39737877 -1.617175
0.81285501 0.40812498 -1.6178
0.8229 0.40391001 -1.6174001
0.83877003 0.40087998 -1.6173
0.84520149 0.40556356 -1.6172215
0.8186 0.41771999 -1.619
0.8369267 0.41479334 -1.6127334
0.83784002 0.42336333 -1.6171666
0.8463726 0.42516139 -1.6162467
0.83836335 0.43686667 -1.6144667
0.84397 0.43340775 -1.6145444
0.83393002 0.44395 -1.6133
0.84214503 0.45166001 -1.6126499
0.56252003 -0.17136 -1.6005
0.7155 0.1224 -1.6033
0.48243001 -0.44132999 -1.5915999
0.51014 -0.34704 -1.5926
-0.16452999 -0.027871 -1.3489
-0.13502643 0.24380644 -1.3435713
-0.12907749 0.25375 -1.3418751
-0.14517154 0.24761154 -1.3381768
-0.13643335 0.24809249 -1.3389584
-0.15460552 0.25442466 -1.3340313
-0.14484064 0.25475502 -1.3346281
-0.13532524 0.25508729 -1.3363574
-0.1290125 0.25524002 -1.3390501
-0.16524287 0.26211286 -1.3310286
-0.15433124 0.26194626 -1.331425
-0.14400798 0.26282403 -1.3316733
-0.13510182 0.26466912 -1.3334485
-0.12874 0.26591998 -1.3367125
-0.16078 0.27274001 -1.3307
-0.13474751 0.27090248 -1.3317001
-0.12895715 0.27458572 -1.3331
-0.1289925 0.28348249 -1.332575
-0.12897 0.29056999 -1.3303
-0.17331003 0.25799289 -1.3295715
-0.16626571 0.2590757 -1.3282
-0.15563667 0.25992665 -1.3294333
-0.14922667 0.25838333 -1.3286999
-0.17512679 0.26644573 -1.326625
-0.16432191 0.26595774 -1.3264647
-0.15472041 0.26596999 -1.328076
-0.14615551 0.2668905 -1.3279098
-0.13686799 0.26902002 -1.3286599
-0.18479359 0.27470356 -1.3243644
-0.17526706 0.27449 -1.3226383
-0.16505694 0.27454817 -1.3224425
-0.15522 0.27444565 -1.3237534
-0.14565673 0.27485871 -1.3244201
-0.13516158 0.27562711 -1.3269025
-0.185482 0.28102201 -1.3227199
-0.17654599 0.280938 -1.3223401
-0.16359624 0.28156874 -1.321825
-0.15510999 0.28178999 -1.3213
-0.1440025 0.28273001 -1.321
-0.13480146 0.28495497 -1.323341
-0.1288875 0.28530252 -1.3281
-0.13193166 0.29236165 -1.3214333
-0.12882285 0.2948586 -1.3234857
-0.12718739 0.37905255 -1.3224444
-0.12701733 0.38052598 -1.32702
-0.18485999 0.27620998 -1.3189334
-0.17445999 0.27612501 -1.319
-0.1633625 0.27607 -1.318675
-0.15322666 0.27863333 -1.3193334
-0.14758 0.27989 -1.3186001
-0.19407287 0.28647858 -1.3172929
-0.18520701 0.28558853 -1.3171765
-0.17483713 0.28501201 -1.3174801
-0.16456224 0.28580806 -1.3171
-0.15510319 0.28543526 -1.3177562
-0.14543219 0.28518781 -1.3179109
-0.13835199 0.288486 -1.3181601
-0.19502258 0.29477999 -1.313642
-0.18547598 0.2942903 -1.3129801
-0.17463057 0.29412782 -1.3130194
-0.16462409 0.29433414 -1.3128296
-0.15499094 0.29457346 -1.313247
-0.20068428 0.30553287 -1.3160428
-0.19628729 0.3036609 -1.3122182
-0.18893667 0.30260667 -1.3111
-0.17709333 0.30730999 -1.3119
-0.16215 0.30001 -1.3104
-0.20138334 0.31445 -1.3138
-0.20302001 0.33410001 -1.31155
-0.12826312 0.3770428 -1.3154275
-0.19225334 0.29881334 -1.3093001
-0.1851975 0.29895499 -1.3088624
-0.17561445 0.29805005 -1.3092332
-0.165198 0.29682902 -1.30919
-0.20022 0.30949 -1.3096
-0.19400349 0.30657005 -1.307855
-0.18482648 0.30559161 -1.3061163
-0.17443699 0.30517751 -1.3064805
-0.20009999 0.31617144 -1.3065144
-0.19493283 0.31483689 -1.3041031
-0.18525788 0.31458151 -1.3033607
-0.20214625 0.32562 -1.306525
-0.19679929 0.32316142 -1.3013214
-0.18510152 0.32210153 -1.3020384
-0.20250714 0.33576003 -1.3051001
-0.20240751 0.34435251 -1.301675
-0.20266999 0.35694 -1.3013999
-0.20571999 0.374834 -1.30714
-0.19499937 0.32620656 -1.2980093
-0.20193 0.336465 -1.29805
-0.20202111 0.34555557 -1.2967889
-0.20193751 0.35512999 -1.2932001
-0.20206167 0.36172667 -1.2928166
-0.7350325 -0.63566995 -1.24235
-0.75539398 -0.64256203 -1.23338
-0.73445433 -0.6450057 -1.2356001
-0.72793144 -0.6434043 -1.2323999
-0.75557327 -0.63497663 -1.2317667
-0.7430346 -0.63480467 -1.2346598
-0.73343903 -0.63539898 -1.2344401
-0.72953999 -0.63609999 -1.2344999
-0.752244 -0.62236804 -1.2346599
-0.7446593 -0.62632143 -1.2331499
-0.73667276 -0.6276564 -1.2337364
-0.76262999 -0.64823496 -1.2221
-0.75598001 -0.64365 -1.2261333
-0.74307245 -0.64530116 -1.225377
-0.73543501 -0.64505506 -1.2277501
-0.72768754 -0.64595169 -1.2272917
-0.7542966 -0.63230997 -1.2245667
-0.7449984 -0.63526618 -1.2263039
-0.75420105 -0.62290108 -1.2227367
-0.74781996 -0.62429059 -1.2266563
-0.75597501 -0.61926401 -1.2260201
-0.74456 -0.61988002 -1.2278
-0.78291339 -0.59619671 -1.2229334
-0.77895254 -0.59138751 -1.222975
-0.82556671 -0.65568 -1.2111334
-0.81820339 -0.65451664 -1.2162
-0.78376853 -0.65407854 -1.2153857
-0.77360433 -0.65605289 -1.2149285
-0.7740733 -0.64388996 -1.2171
-0.76250005 -0.64879006 -1.2156334
-0.76506001 -0.6372 -1.2155
-0.80166 -0.60637498 -1.2146499
-0.79592001 -0.60811001 -1.2136
-0.78408772 -0.60625768 -1.217223
-0.79604 -0.59986001 -1.2125
-0.78237998 -0.59782499 -1.218325
-0.77875 -0.59920001 -1.2174
-0.78714001 -0.58293998 -1.21165
-0.79154003 -0.57700002 -1.2149
-0.78112 -0.56190002 -1.2126501
-0.78087002 -0.55256999 -1.2165
-0.77784503 -0.55506003 -1.2121501
-0.78062499 -0.54811001 -1.2179999
-0.77504665 -0.54377002 -1.2110333
-0.78096002 -0.53851002 -1.2177
-0.77374142 -0.53310859 -1.2137716
-0.77405667 -0.52695996 -1.2165667
-0.76937002 -0.52096999 -1.2137001
-0.77239841 -0.51508671 -1.2185
-0.76986998 -0.51521999 -1.2171
-0.76788497 -0.50361001 -1.2181499
-0.67404747 -0.216195 -1.2127249
-0.67353499 -0.20904499 -1.2107
-0.67897499 -0.19479001 -1.21415
-0.8175 -0.66127998 -1.2055
-0.8308 -0.65250999 -1.2079999
-0.81681001 -0.65863502 -1.2028
-0.83056003 -0.62168998 -1.202
-0.82839501 -0.62496001 -1.20705
-0.83533001 -0.60277998 -1.2044001
-0.79242998 -0.60180002 -1.21
-0.79303998 -0.59884 -1.2072001
-0.78489995 -0.58737004 -1.2052
-0.78372753 -0.5748325 -1.2049251
-0.77889001 -0.57409 -1.2026
-0.78046 -0.56845999 -1.2029999
-0.77772504 -0.56511003 -1.2033
-0.77613991 -0.55515432 -1.2047001
-0.83880001 -0.54711002 -1.2012
-0.77275997 -0.54407662 -1.2041888
-0.77252996 -0.53556752 -1.209425
-0.76888001 -0.53503001 -1.2066
-0.76788998 -0.52722001 -1.2081
-0.79486001 -0.45536751 -1.2055
-0.78338671 -0.44688335 -1.2024332
-0.77952999 -0.44271001 -1.2036
-0.7748853 -0.43214473 -1.2036588
-0.77176142 -0.42655998 -1.2058572
-0.76966667 -0.42567003 -1.2081
-0.73067999 -0.30950001 -1.2095
-0.67581058 -0.2053165 -1.20293
-0.68059999 -0.19624001 -1.2009001
-0.67621166 -0.19509667 -1.2027278
-0.67755252 -0.18539 -1.204875
-0.68011999 -0.1777 -1.2029001
-0.82449335 -0.66424328 -1.1987333
-0.86849999 -0.62169999 -1.1913
-0.83427 -0.59483999 -1.196
-0.82557994 -0.59563667 -1.1936666
-0.83293498 -0.58279002 -1.19435
-0.83367997 -0.57302666 -1.1952333
-0.82950997 -0.57248002 -1.1932
-0.84192002 -0.56176001 -1.1949
-0.83674002 -0.55729997 -1.198
-0.85314 -0.54452002 -1.1923
-0.84108001 -0.52442998 -1.1955
-0.83904999 -0.52495003 -1.1967
-0.80249333 -0.47384667 -1.1905
-0.79917997 -0.47420999 -1.1925
-0.80022001 -0.46039999 -1.1998
-0.79101998 -0.46675 -1.1908
-0.79279333 -0.45399666 -1.1924334
-0.78280002 -0.44404602 -1.1945
-0.77710009 -0.44169748 -1.192425
-0.77548641 -0.43546861 -1.1942714
-0.77636999 -0.42965999 -1.1979001
-0.68066335 -0.19510664 -1.1955584
-0.67584246 -0.19484814 -1.1976312
-0.68086171 -0.18496417 -1.1942083
-0.68122 -0.17666499 -1.1961
-0.68277001 -0.15605 -1.19295
-0.69173002 -0.13548 -1.1985
-0.69230998 -0.1248475 -1.19415
-0.70014 -0.10646 -1.199
-0.69985998 -0.090329997 -1.1912
-0.69397002 -0.074056998 -1.1992
-0.70086002 -0.058304001 -1.1950001
-0.92466998 -0.63485003 -1.1821001
-0.9153533 -0.62364334 -1.1845332
-0.86633998 -0.62861001 -1.1838
-0.90371001 -0.61260498 -1.1819
-0.85828 -0.59944999 -1.1873
-0.88809001 -0.58577001 -1.187
-0.86840999 -0.56356001 -1.1896
-0.83301997 -0.56252503 -1.1889501
-0.82990998 -0.56528002 -1.1872
-0.86128002 -0.55774999 -1.1803
-0.85571998 -0.55026001 -1.1892
-0.84987998 -0.54363 -1.1872
-0.84297001 -0.53863001 -1.1826
-0.83420998 -0.53609997 -1.1834
-0.83837998 -0.52746999 -1.1896
-0.79492497 -0.45840502 -1.1889
-0.73782998 -0.18121 -1.1864001
-0.75384003 -0.13477001 -1.1813999
-0.69173998 -0.11363 -1.1835001
-0.69406003 -0.1028 -1.1842999
-0.69555002 -0.073435001 -1.1891
-0.68976003 -0.071872003 -1.1833
-0.87866998 -0.65776002 -1.1792001
-0.93028003 -0.64315999 -1.1766
-0.92448002 -0.63717496 -1.17545
-0.91776001 -0.63138998 -1.1776
-0.91171503 -0.62446499 -1.17635
-0.89930999 -0.60723001 -1.1799001
-0.85119998 -0.54668999 -1.1783
-0.75342 -0.11592 -1.1706001
-0.76543665 -0.095099002 -1.1767
-0.93180001 -0.65095001 -1.1697
-0.92618001 -0.64494002 -1.16635
-0.92172003 -0.63932502 -1.16465
-0.91530001 -0.63467997 -1.1667
-0.76779997 -0.067355998 -1.1651
-0.77825999 -0.032311 -1.1669
-0.76108998 -0.075024001 -1.1583
-0.77265 -0.0187265 -1.15115
