# .PCD v0.7 - Point Cloud Data file format
VERSION 0.7
FIELDS x y z intensity distance sid
SIZE 4 4 4 4 4 4
TYPE F F F F F F
COUNT 1 1 1 1 1 1
WIDTH 822
HEIGHT 1
VIEWPOINT 0 0 0 1 0 0 0
POINTS 822
DATA ascii
0.41503611 -0.50899869 -1.5202004 13.256282 1.5482519 543.14069
0.49535716 -0.51618004 -1.5062679 12.16 1.56652 572.20001
0.52647197 -0.51114869 -1.518387 12.480519 1.5876632 581.237
0.5748499 -0.51105267 -1.5192285 12.573134 1.6079878 596.98804
0.62465942 -0.5110721 -1.5193632 11.81875 1.6295435 612.88123
0.67490983 -0.51105779 -1.5194557 11.397515 1.6524878 628.49066
0.72455299 -0.51086104 -1.5193168 12.058064 1.6760771 643.52905
0.77511078 -0.51107675 -1.5196058 11.235881 1.7017236 658.31232
0.82529354 -0.51134157 -1.5184383 11.242857 1.7271138 672.78217
0.87420458 -0.51087594 -1.5195687 10.637362 1.7544869 686.12823
0.91130656 -0.50921202 -1.523629 10.073395 1.7779911 695.50458
-1.1116012 -0.49036738 -1.5348333 11.208333 1.7855104 3.7395833
-1.0758176 -0.49118829 -1.5336512 11.618605 1.7647259 13.148837
-1.0247393 -0.49143061 -1.5338402 12.262444 1.7371305 27.217196
-0.97536415 -0.49003628 -1.5347171 10.453333 1.7116303 41.271111
-0.9199549 -0.48681486 -1.5288997 10.237288 1.67822 56.35593
-0.8785882 -0.49150187 -1.5341187 12.038095 1.6639187 69.85714
-0.84575135 -0.49594 -1.5171715 10.571428 1.6355714 77.571426
-0.76599699 -0.48450249 -1.5359334 11.4 1.6137357 105.1
-0.7260778 -0.49166793 -1.5339161 13.915709 1.5978501 118.16475
-0.67520773 -0.49210036 -1.5353384 14.198413 1.5798939 135.34126
-0.62434381 -0.49227813 -1.5348856 13.795276 1.561638 152.66142
-0.57530755 -0.49221623 -1.5359719 14.062992 1.5467361 169.88977
-0.52487844 -0.49236315 -1.5356551 14.682171 1.5316478 187.80232
-0.47439599 -0.49197787 -1.5361021 14.363636 1.5186176 206.12878
-0.42530948 -0.49251974 -1.536175 14.023255 1.5073994 224.22093
-0.37496027 -0.49279892 -1.5363415 14.152611 1.4974742 243.04819
-0.3253437 -0.49292755 -1.5374272 13.880953 1.4901226 261.87302
-0.27516633 -0.49336901 -1.5373484 15.16318 1.4833223 281.03348
-0.2249507 -0.4933359 -1.538646 15.029787 1.4793572 300.39999
-0.17474151 -0.49338534 -1.5388044 15.947826 1.4760253 319.82608
-0.12493754 -0.4942351 -1.5380292 16.523365 1.4737573 339.15421
-0.075536832 -0.49401313 -1.5391699 15.725119 1.4746726 358.35544
-0.025372121 -0.49424466 -1.539367 15.458128 1.4765073 377.82266
0.024671391 -0.49454057 -1.5400718 14.473684 1.4805417 397.15262
0.073997207 -0.49480769 -1.5405324 14.142858 1.4859285 416.09341
0.12431966 -0.49497089 -1.540336 15.402439 1.492415 435.29877
0.17478913 -0.49502274 -1.5419518 14.059172 1.5022609 454.24854
0.22344485 -0.49565658 -1.5413618 14.353742 1.511456 472.41498
0.27488706 -0.49565542 -1.5428045 14.733813 1.5245252 491.20145
0.32549989 -0.49607009 -1.5428717 14.525547 1.5378323 509.47446
0.37428814 -0.49570715 -1.5427788 13.448819 1.5517558 526.81891
0.4241122 -0.49588582 -1.5418684 12 1.5668349 544.27521
0.46937332 -0.4777433 -1.5347999 8.666667 1.5713334 561.33331
0.53042215 -0.49394333 -1.5421691 11.27027 1.6050271 580.12164
0.57400692 -0.49686429 -1.544189 12.47191 1.625146 593.8764
0.62520081 -0.49705669 -1.5441908 11.844444 1.6470004 610.08887
0.67426813 -0.49664924 -1.5442654 11.797752 1.6690451 625.23596
0.72526211 -0.49659267 -1.5446664 12.024692 1.6935308 640.48151
0.77487117 -0.49682245 -1.5441145 11.243902 1.7177685 655.02441
0.82461971 -0.49696189 -1.543461 11.088889 1.7430556 669.21112
0.87514108 -0.49655676 -1.5439806 10.698795 1.7706027 683.02411
0.91381484 -0.49705166 -1.5421082 10.111111 1.7907499 693.66669
-0.92570627 -0.42885625 -1.5298874 8 1.667375 52
-0.88576221 -0.42090777 -1.5222223 12.888889 1.6395555 62.444443
-0.77012998 -0.41538 -1.5099 40 1.575 97
0.44804999 -0.42857999 -1.5099 14 1.528 559
0.46290249 -0.4268375 -1.538875 10.5 1.559 560.5
0.52585667 -0.42659333 -1.5204667 10 1.5663334 584.33331
-0.91275501 -0.38179168 -1.5180001 13.333333 1.6404999 51.833332
-0.80632502 -0.36581999 -1.5309 21 1.598 86.5
-0.79031742 -0.382725 -1.5208 15.5 1.5857501 90.75
0.47542334 -0.37713334 -1.5349668 14 1.5483333 567
0.54510999 -0.39759001 -1.5407 22 1.585 589
0.55194002 -0.36399001 -1.5301 2 1.571 594
-0.95840222 -0.34303337 -1.5371556 3.5555556 1.6718889 39.888889
-0.93504995 -0.33913252 -1.5073 7 1.6342499 41.5
0.490192 -0.32209399 -1.5348198 11.2 1.5424 573.79999
0.54773003 -0.33173999 -1.5079 26 1.543 597
-0.82866001 -0.29107335 -1.5178 14.666667 1.5826668 74.666664
0.50532001 -0.27847001 -1.5432 8 1.548 579
0.55993003 -0.29589999 -1.5095 6 1.543 602
-0.95630002 -0.22392 -1.53075 13 1.6470001 35.5
-0.86155999 -0.21109 -1.5239 14 1.592 63
0.50283003 -0.2351 -1.51345 9 1.5135 583.5
0.59136498 -0.21647 -1.5227499 8 1.5565 612.5
0.60080999 -0.20229 -1.5283999 10 1.564 615
-0.97565001 -0.18318 -1.5372 4 1.658 30
-0.88195002 -0.18823999 -1.5466 22 1.619 60
0.51928997 -0.168275 -1.50725 11 1.5065 591.5
0.59733498 -0.19183001 -1.51975 21 1.5534999 615.5
0.60663998 -0.15614 -1.5151 30 1.55 620
0.53113002 -0.12511 -1.5089 10 1.5089999 596
0.8273986 -0.10566001 -1.5126572 2.2857144 1.6562856 689.28571
0.85478997 -0.11164 -1.5125999 2 1.6720001 697
-1.0096 -0.079925999 -1.5265501 11 1.6600001 16.5
-0.87518001 -0.079364002 -1.5323 10 1.595 58
0.55387497 -0.065104499 -1.5208499 12 1.526 602.5
0.63145 -0.090847 -1.5211 0 1.562 628
0.69453001 -0.0582515 -1.5037 0 1.576 651.5
0.71760476 -0.069444515 -1.5061347 2.5217392 1.5902172 658.17389
0.78745002 -0.097217999 -1.501 2 1.624 680
0.804515 -0.099344 -1.5220001 3 1.651 681
-1.01315 -0.0366285 -1.51265 11 1.6489999 12.5
-0.18976 -0.041799501 -1.5374 3 1.399 312
0.55278999 -0.0425575 -1.5100501 5 1.515 604
0.64779997 -0.013038499 -1.50535 5 1.5534999 636.5
0.67749667 -0.046703998 -1.5066333 0 1.5696667 645.66669
0.68467999 0.048068717 -1.5022835 0 1.5695 648.72223
0.73065579 0.044153027 -1.5073595 1 1.5971668 662.125
0.77519059 0.041615114 -1.5157341 0.64462811 1.6276948 674.02478
0.82580179 0.037084255 -1.522406 0.47619048 1.6608362 687.56085
0.8609246 0.039818492 -1.5336868 0.66666669 1.6898936 695.33331
-1.0558 0.070413001 -1.5199 0 1.6799999 2
0.69611996 0.066000283 -1.5057143 0.2857143 1.5788572 651.57141
0.72754127 0.059819184 -1.5268514 1.2 1.6127205 657.49597
0.77341616 0.05701039 -1.5394496 0.76767677 1.6472429 668.98993
0.81451446 0.054538295 -1.5445296 0.51851851 1.6734815 680.03705
0.86085498 0.051407002 -1.5481 0 1.702 692.5
-1.0003 0.12169 -1.5335 0 1.663 21
0.6748867 0.12211332 -1.5394334 0.66666669 1.6006666 638.33331
0.70015001 0.10174 -1.5364 0 1.609 647
-0.80560505 0.28432 -1.5308499 2 1.5825 84
-0.76213253 0.29761001 -1.5040625 10 1.5419999 94.5
-0.73061073 0.29889005 -1.5010201 14.266666 1.5262001 104.73333
-0.67562002 0.29850337 -1.5015931 14.4 1.5046668 123.86667
-0.62652999 0.29949 -1.5021715 16.285715 1.4871428 141.42857
-0.57875741 0.29877004 -1.5015684 15.473684 1.470158 158.73685
-0.52491421 0.29854107 -1.5020052 18.105263 1.4537895 178.8421
-0.47235844 0.29839152 -1.5020616 17.538462 1.4392307 198.84616
-0.42201835 0.29830331 -1.5024 14.444445 1.4272221 218.38889
-0.37377572 0.29860997 -1.5035 12.285714 1.4181428 237.4762
-0.32743362 0.29819596 -1.5030919 17.68 1.4093599 255.92
-0.27554998 0.298365 -1.5028334 18.583334 1.4015832 276.83334
-0.23336646 0.29832643 -1.5030059 15.529411 1.3969412 294
-0.11301211 0.29813001 -1.5034157 16.526316 1.3907368 343.42105
-0.076432221 0.29824114 -1.5039424 23.878788 1.3913939 358.48486
-0.025816353 0.29823998 -1.5033678 26.142857 1.3925 379.32144
0.023147115 0.29817861 -1.5031635 26 1.3956331 399.39999
0.073715813 0.29820636 -1.503988 23.818182 1.4016969 419.9697
0.12488102 0.29806638 -1.5041692 24.461538 1.4089999 440.61539
0.17553304 0.29815906 -1.5041165 23.277779 1.417833 460.83334
0.22457054 0.29809278 -1.5042027 22.222221 1.4281387 480.13889
0.27344176 0.29807997 -1.5042742 21.028572 1.4399713 499.08572
0.32258376 0.29811847 -1.5036438 21.25 1.4528124 517.875
0.37308133 0.298298 -1.5042531 17.533333 1.4687999 536.66669
0.41589734 0.29845995 -1.5038333 15.066667 1.4826665 552.40002
-0.75738108 0.31371492 -1.5270846 12.830189 1.5632643 100.1132
-0.72473198 0.31359845 -1.5264611 15.100529 1.5492227 110.97884
-0.67454034 0.31319824 -1.5260708 15.86802 1.529148 128.10152
-0.62502146 0.31315801 -1.5268149 18.704662 1.5118186 145.58549
-0.57475549 0.31324238 -1.5272615 18.217617 1.4954298 163.69431
-0.52473933 0.31270778 -1.5266029 18.646465 1.4794949 181.95959
-0.47502691 0.31290171 -1.5271814 19.368933 1.4664801 200.62622
-0.42540917 0.31225726 -1.5262241 19.747475 1.4534396 219.42424
-0.37475896 0.31245768 -1.527534 20.629999 1.4441404 239.12
-0.32486382 0.31210089 -1.5270195 21.035534 1.4348073 258.63452
-0.27473298 0.31262481 -1.5277774 21.873171 1.4285468 278.54147
-0.23442292 0.31264967 -1.5266182 21.844961 1.4229226 294.59689
-0.11572307 0.31259266 -1.5287135 21.801653 1.4184294 342.45456
-0.07524924 0.31243193 -1.5284992 25.669903 1.4182814 358.80582
-0.025196172 0.3125459 -1.5288283 25.65 1.4202757 379
0.024805097 0.31245461 -1.5288891 24.9 1.4237201 399.10001
0.074888609 0.31265637 -1.529088 24.4 1.4291148 419.10001
0.12490408 0.31221589 -1.528731 23.200001 1.4355525 438.94211
0.1751041 0.31254569 -1.5295138 22.71134 1.4449841 458.56186
0.22529486 0.31231162 -1.5288253 20.759357 1.4545672 478.03745
0.27501899 0.31270257 -1.5293949 18.368422 1.4670002 496.92633
0.32510397 0.31246358 -1.5288535 14.615385 1.4799393 515.74176
0.37479776 0.31229365 -1.5281456 12.797814 1.4941808 534.0874
0.41682881 0.31225535 -1.5275215 11.377049 1.5073686 549.33606
-0.1321 0.38198999 -1.5297 2 1.4349999 336
-0.23082 0.44341001 -1.5498 10 1.476 298
0.34740001 -0.55022001 -1.4507999 16 1.478 525
0.39921001 -0.55006999 -1.4505 22 1.494 544
0.45820999 -0.55022001 -1.4507999 10 1.515 565
0.53246003 -0.55094004 -1.4527668 13.333333 1.5456667 590.33331
0.5589 -0.55032003 -1.4511 14 1.5550001 599.5
0.62429911 -0.55079365 -1.4511273 12.181818 1.5839092 620.90912
0.67422199 -0.55113804 -1.45066 11.6 1.607 636.79999
0.71906602 -0.55152601 -1.45452 12.4 1.6321999 650
0.76329195 -0.55083799 -1.4516001 12 1.6522 663.79999
0.81105751 -0.55089998 -1.451525 11.5 1.6775 677.75
0.87208003 -0.55077004 -1.451175 11.5 1.7110001 695
-1.1021799 -0.51066601 -1.4982201 10 1.7568001 1
-1.0710989 -0.5219276 -1.4777125 11.525641 1.7262747 6.4967947
-1.0248848 -0.52432668 -1.4747965 11.876607 1.6990228 18.994858
-0.97753131 -0.52460366 -1.4740931 11.917404 1.6731355 32.471977
-0.922499 -0.52105963 -1.4735425 9.1485147 1.6433812 48.475246
-0.87450707 -0.5243699 -1.4756123 12.732186 1.6224748 63.675674
-0.82726073 -0.5265556 -1.4717242 12.61413 1.597755 78.051628
-0.79431361 -0.53455019 -1.4556816 12.157895 1.5718156 86.657898
-0.71672457 -0.52148741 -1.4798028 14.09375 1.5557616 115.27734
-0.67453367 -0.52524555 -1.474898 14.194385 1.5363631 129.2095
-0.6251477 -0.52564871 -1.4749757 14.125523 1.5186826 146.50836
-0.57519138 -0.52570337 -1.4744542 14.505092 1.5015953 164.32179
-0.52521902 -0.52581811 -1.4745313 14.036961 1.4865375 182.59549
-0.4743081 -0.5262087 -1.4740818 14.054902 1.472401 201.53922
-0.42452568 -0.52613539 -1.4748492 14.106618 1.461122 220.47978
-0.37483588 -0.52689093 -1.4747764 15.574388 1.4509684 239.62335
-0.3248623 -0.52738822 -1.4743905 16.210922 1.4420441 259.09982
-0.27501893 -0.52757365 -1.4749978 16.257828 1.4356422 278.78638
-0.2248524 -0.52855724 -1.4746519 16.217712 1.4302945 298.73248
-0.17526056 -0.52898884 -1.4743673 16.572519 1.4265893 318.57062
-0.12549068 -0.52936357 -1.474773 17.319778 1.4252372 338.56561
-0.075516589 -0.52996236 -1.4745795 17.569061 1.4251353 358.65561
-0.02507145 -0.53024989 -1.4750519 17.817204 1.4273319 378.90503
0.025156235 -0.53059965 -1.4750354 17.102333 1.4308457 398.99463
0.075002559 -0.53149289 -1.4748253 16.650824 1.4360622 418.80804
0.12481266 -0.53187686 -1.474355 16.491493 1.4425646 438.4707
0.17461194 -0.5328086 -1.4743228 15.659004 1.4513367 457.88123
0.22507523 -0.5335508 -1.4741945 15.683809 1.4617494 477.30475
0.27454165 -0.53307992 -1.4755 14.980769 1.4744749 495.96732
0.32487482 -0.53400266 -1.4743264 14.730159 1.4871979 514.81348
0.37510067 -0.53433841 -1.474754 14.821862 1.5027102 533.12549
0.40405288 -0.52572232 -1.4758139 14.64 1.5101701 543.79999
0.48162645 -0.53673899 -1.4701188 12.90625 1.5361912 571.28125
0.52473986 -0.5347476 -1.4755969 13.144124 1.5570651 585.36584
0.57469022 -0.53537977 -1.4748514 13.540178 1.5772375 602.07367
0.62502372 -0.53543663 -1.4751692 11.829787 1.599604 618.34045
0.67475885 -0.53554434 -1.4750148 11.952941 1.6225649 634.03058
0.72508579 -0.53542787 -1.4747765 11.423645 1.6468679 649.47784
0.77499932 -0.5355708 -1.4747473 11.225 1.6723619 664.29498
0.82459635 -0.53535956 -1.4751501 11.061334 1.6990023 678.51465
0.87305182 -0.53471178 -1.4771208 11.16763 1.7271067 691.72546
0.90425068 -0.52411532 -1.4953732 10.133333 1.7559334 697.66669
-0.92765176 -0.47959328 -1.4758911 6.2352943 1.6363823 44.970589
-0.89459997 -0.49267331 -1.4694333 11.333333 1.618 54.666668
-0.83472502 -0.46944001 -1.489875 11.5 1.60025 75.5
-0.76776332 -0.47638667 -1.4728333 18 1.558 95
-0.73277235 -0.4733215 -1.4723573 14.095238 1.5417143 106.47619
0.41646001 -0.47460371 -1.4684374 12.75 1.492375 551.25
0.48694 -0.47540599 -1.4772799 16 1.526 575
-0.90466833 -0.42574167 -1.4778833 11.666667 1.6128334 49.5
-0.87489384 -0.42210764 -1.4753431 8.5714283 1.595143 58.142857
-0.82010496 -0.44169 -1.45365 16 1.5555 73
-0.75997716 -0.42359 -1.4871142 14.285714 1.5528572 97.285713
-0.73418713 -0.44073138 -1.4604571 15.428572 1.5231428 102.71429
0.43074 -0.43188 -1.4748 12 1.4912499 557.25
0.49548501 -0.439845 -1.4737999 20 1.5165 580
0.50554001 -0.42457998 -1.4816999 15 1.5235 583
-0.87430251 -0.38141876 -1.4738624 8.875 1.58425 56.1875
-0.77288991 -0.36197221 -1.4722667 15.111111 1.5313333 88.111115
-0.74773997 -0.39539 -1.4598 14 1.517 96
0.44376668 -0.37520003 -1.4678665 14 1.4756666 565
0.47935998 -0.37515 -1.47305 19 1.494 577
0.52040249 -0.37456 -1.482175 19.5 1.5179999 590
-0.92308003 -0.33246332 -1.4725167 4.3333335 1.5976666 38.666668
-0.87983328 -0.33040997 -1.4665667 18.666666 1.5703334 51
-0.80061001 -0.30430001 -1.4741 0 1.534 77
-0.78176749 -0.32652748 -1.4628749 21 1.52 82.25
0.457075 -0.32910502 -1.4704499 10 1.473 571
0.53931999 -0.32345501 -1.4876001 16 1.52 597.5
-0.90452999 -0.25696 -1.4744 8 1.577 42
-0.89827001 -0.27175999 -1.472 2 1.574 44
-0.80877995 -0.29312 -1.4835501 6 1.544 75.5
0.4758825 -0.26496503 -1.47295 11.5 1.47075 579.25
0.54389 -0.28494501 -1.4737 33 1.5025001 602.5
-0.80500001 -0.23847 -1.4541 8 1.508 70
0.48491001 -0.21444499 -1.4616001 12 1.4565001 585.5
0.55711001 -0.24331 -1.4753 10 1.503 608
0.48778999 -0.19926 -1.4608999 8 1.455 587
0.50386 -0.17094 -1.47875 23 1.4744999 590.5
0.57211 -0.15554 -1.4528 10 1.479 619
0.52502 -0.12509501 -1.49245 16 1.4915 596.5
0.79914999 -0.10027 -1.4773999 4 1.6109999 688
0.81305063 -0.10327811 -1.4684218 3.8125 1.6115624 693.84375
-0.97451001 -0.068788998 -1.4712 4 1.594 16
-0.86581498 -0.083096504 -1.49025 3 1.554 53.5
-0.84624004 -0.084361501 -1.4748 5 1.531 57
0.60579002 -0.078833997 -1.4674 2 1.502 629
0.68605745 -0.056982398 -1.4798949 2.05 1.551125 653.22498
0.72755146 -0.073557124 -1.4834234 3.9674797 1.5761462 665.46344
0.77372241 -0.091052473 -1.4746915 4.5 1.5943049 681.07031
-0.17908499 -0.041985497 -1.4639 5 1.325 314.5
0.63854122 -0.015299564 -1.4610039 2.4367816 1.5102822 641.47699
0.66086835 -0.036463633 -1.4628768 2.4102564 1.5232563 648.38464
0.64094615 0.015066793 -1.4615244 1.2957747 1.5119084 642.16901
0.67450649 0.026929865 -1.4708352 0.87437189 1.5368124 651.36182
0.72389728 0.025012715 -1.4737291 0.83969468 1.5646186 666.48853
0.77437484 0.01902993 -1.4747802 0.50655019 1.5924852 681.77295
0.81625205 0.01524841 -1.4795187 0.50746268 1.619612 693.26868
0.64656335 0.050763667 -1.4573332 0 1.5116667 644.66669
0.67554295 0.055137943 -1.4804059 1.6470588 1.5462352 649.76471
-0.911255 0.15658501 -1.4702499 0 1.5650001 36.5
-0.81485999 0.23804 -1.473 0 1.529 70
-0.75847208 0.28288114 -1.4746156 8.7692308 1.5118461 90.53846
-0.72500432 0.28386849 -1.4739038 13.395122 1.4970925 101.98537
-0.6751098 0.28355551 -1.4738033 14.380953 1.4767137 119.53809
-0.62472343 0.28385493 -1.4745806 15.668085 1.4584937 137.8766
-0.57443225 0.28297228 -1.4733976 17.206896 1.4398061 156.34914
-0.52443349 0.28289315 -1.4736102 18.714893 1.4241918 175.35745
-0.47487342 0.28281942 -1.4742352 19.365461 1.4106872 194.63454
-0.42530277 0.2829937 -1.4746344 20.220407 1.3986371 214.25307
-0.37538919 0.28227949 -1.4738556 20.415384 1.3868883 234.21153
-0.32463968 0.28221744 -1.4738823 23.689243 1.3776132 254.89641
-0.27479801 0.28221643 -1.4743598 24.580153 1.3707255 275.48474
-0.23242377 0.28214854 -1.4740385 23.703297 1.3655052 293.09891
-0.11511209 0.28180099 -1.4742219 24.536913 1.3590002 342.38254
-0.075071335 0.28158015 -1.4737079 27.37594 1.3585624 359.26691
-0.025121029 0.28171027 -1.4743611 27.040293 1.360949 380.29303
0.0252109 0.28188741 -1.4747919 26.709923 1.3649844 401.3855
0.075330697 0.28134668 -1.4742966 26.443609 1.3698006 422.297
0.12530336 0.28102008 -1.4739643 25.39535 1.3766011 442.95737
0.17463526 0.28102833 -1.4739106 24.622568 1.3853693 463.10117
0.22494221 0.28098598 -1.4740068 21.84375 1.3961917 483.34375
0.27490842 0.28082931 -1.4739847 19.393702 1.4085046 503.12991
0.32524899 0.28134441 -1.4748098 21.656 1.423492 522.58398
0.37503389 0.28106794 -1.4740336 18.796812 1.4382753 541.62152
0.4181242 0.28194147 -1.4748193 15.409091 1.4538295 557.55682
-0.21804142 0.32651713 -1.4896858 11.714286 1.3882858 300
0.39984 0.30399001 -1.4613 0 1.439 552
0.42192 0.30430001 -1.4921 0 1.475 556
0.58573002 0.34000999 -1.4852 0 1.541 613
-0.13068502 0.36679998 -1.4736667 1 1.377 336
-0.128295 0.417905 -1.4606 16 1.3775001 337
-1.0559975 -0.55614036 -1.4163854 11.707317 1.6801709 1.9756098
-1.0248301 -0.55746973 -1.4140252 12.164384 1.6612101 10.484018
-0.97796822 -0.55795258 -1.4135091 13.074074 1.6352365 24.041666
-0.91738284 -0.55763006 -1.4148721 13.005181 1.6043829 42.487045
-0.86923701 -0.55802697 -1.4142969 13.070968 1.5800004 57.432259
-0.82492638 -0.55810875 -1.4154892 13.444043 1.5598233 71.837547
-0.77800053 -0.55835497 -1.4109015 14.544 1.5347363 86.615997
-0.74657375 -0.56400251 -1.40315 10.5 1.5163749 96.375
-0.6674431 -0.55772036 -1.4157342 13.52657 1.4928888 125.37681
-0.62517768 -0.55804378 -1.4152875 13.123377 1.4770163 140.49675
-0.57474899 -0.55854964 -1.4150969 13.719626 1.4597501 158.98442
-0.52497309 -0.55831873 -1.4150954 14.58125 1.4441471 177.6375
-0.47487384 -0.55840808 -1.4157884 14.832861 1.430756 196.88103
-0.4253433 -0.55866456 -1.4158609 14.745098 1.4186379 216.19608
-0.37476042 -0.55921108 -1.4164697 15.904 1.4085418 236.28799
-0.32503158 -0.55960202 -1.4164987 15.592875 1.3997588 256.26208
-0.27463123 -0.55996263 -1.4174405 15.51861 1.3934393 276.78165
-0.22458284 -0.56011468 -1.4171191 16.387255 1.387707 297.26962
-0.17442474 -0.55999917 -1.41813 16.633802 1.3848935 317.96713
-0.12474868 -0.56050932 -1.4181281 17.105991 1.3831903 338.52075
-0.075155087 -0.56072587 -1.4189123 18.290178 1.3838955 359.0625
-0.02440385 -0.56109375 -1.4193079 18.334057 1.3861307 380.03687
0.024618568 -0.56098008 -1.4207655 17.892704 1.3908726 400.18027
0.074910715 -0.56149423 -1.420696 17.966942 1.396291 420.73761
0.12496034 -0.56190354 -1.4212229 17.478958 1.4039707 440.97797
0.17490016 -0.56221461 -1.4218398 17.011951 1.4134057 460.93027
0.22518213 -0.56268048 -1.4219605 17.429142 1.4242061 480.76248
0.27510181 -0.56284267 -1.422827 16.810177 1.4371598 500.07437
0.32541662 -0.56269157 -1.4231368 16.885714 1.4512222 519.24286
0.37545589 -0.56277108 -1.4234306 15.610063 1.466856 537.90985
0.42470977 -0.56425673 -1.4210848 16.684444 1.4819221 556.14221
0.47475958 -0.56326747 -1.4233375 14.607219 1.5018747 573.78558
0.52511257 -0.56324893 -1.4235368 13.797414 1.5219206 591.29529
0.57483321 -0.56323004 -1.4238598 14.352144 1.5431746 608.0993
0.62519222 -0.56392664 -1.4242181 13.008968 1.5662799 624.59192
0.67539001 -0.56433129 -1.4237447 12.35426 1.5897973 640.69733
0.72472805 -0.5641427 -1.4240797 12.510638 1.6145477 655.96216
0.77484238 -0.56436723 -1.4239303 12.033175 1.6405789 671.0379
0.824754 -0.56397849 -1.4247576 11.715711 1.6681575 685.44641
0.86137992 -0.56184483 -1.4283741 11.580247 1.6907471 695.32098
-1.0612893 -0.54270852 -1.4395943 11.813953 1.6970352 3.7558138
-1.025334 -0.54405135 -1.4379988 12.331491 1.6760494 13.685082
-0.97741139 -0.54385215 -1.4385407 12.011834 1.6503547 27.621302
-0.92189384 -0.53968817 -1.437674 10.186336 1.6194718 43.801243
-0.87023735 -0.54219753 -1.4363509 13.772152 1.5934681 59.715191
-0.82564682 -0.54446793 -1.4398547 13.454545 1.5759251 74.63102
-0.78209436 -0.54407656 -1.4326199 13.469027 1.550036 87.716812
-0.70553595 -0.53230464 -1.4433528 14 1.5231766 114.52941
-0.67526203 -0.54380333 -1.4393111 14.105769 1.511601 125.10096
-0.62473428 -0.54434025 -1.4397718 13.417086 1.4935777 143.11055
-0.57468504 -0.54450887 -1.4394917 14.471154 1.4764473 161.25481
-0.52499175 -0.54447973 -1.4397773 14.794393 1.4613743 179.7243
-0.47621247 -0.54459649 -1.4404463 14.974619 1.448482 198.25381
-0.42406958 -0.54482383 -1.4395571 15.206185 1.4349842 218.27319
-0.37530705 -0.54515868 -1.4409102 16.210526 1.4260211 237.47894
-0.32480747 -0.54547417 -1.4411982 15.820106 1.4174026 257.53439
-0.27493834 -0.54555762 -1.44198 15.554348 1.4110054 277.57608
-0.22602348 -0.54599315 -1.4420252 16.20339 1.4058697 297.36157
-0.17555471 -0.54579622 -1.4423255 16.725145 1.4023501 317.90643
-0.12639146 -0.54628396 -1.4430664 16.959459 1.4013175 338
-0.075326517 -0.54639238 -1.4427887 17.843138 1.4009739 358.88235
-0.026445052 -0.54683793 -1.4438148 17.904762 1.4036825 378.82541
0.024110405 -0.54710346 -1.4445794 18.280375 1.4079344 399.36447
0.074766234 -0.54732335 -1.4452337 16.680412 1.4138871 419.79382
0.12212256 -0.54747427 -1.4466292 16.512196 1.4217442 438.67075
0.17535612 -0.54794633 -1.4460433 15.694445 1.4305558 459.76389
0.2229446 -0.54824859 -1.4457983 17 1.4402416 478.36206
0.27538693 -0.54804367 -1.4474576 16.192308 1.4542116 498.38461
0.3223027 -0.54844791 -1.4467317 14.227273 1.4664093 516.15912
0.37664151 -0.54201359 -1.4467584 14.833333 1.4808332 536.5625
0.41663423 -0.52451092 -1.4255748 19.790794 1.4697244 554.58789
0.4735288 -0.54655296 -1.4470499 13.705882 1.5162942 571.02942
0.52472961 -0.54853249 -1.4477251 13.142858 1.5374644 588.53571
0.57691628 -0.54868001 -1.4468358 14.32 1.5585998 606.20001
0.62106943 -0.54861623 -1.4474562 12 1.5786874 620.5625
0.67397469 -0.54912692 -1.4483308 12.153846 1.6043078 637.23077
0.72491413 -0.54904002 -1.4479998 11.529411 1.6291176 653
0.77767748 -0.54915333 -1.4480416 11.666667 1.6564168 668.75
0.82842571 -0.54901928 -1.4480358 11.285714 1.6837143 683.42859
0.86233127 -0.54921001 -1.4470501 12 1.701875 693.125
-0.90850449 -0.47921541 -1.4299909 6 1.589 42.909092
-0.87976223 -0.47630724 -1.4160333 14.333333 1.5622779 49.333332
-0.80189002 -0.46539 -1.4402 22 1.5420001 78
-0.78200334 -0.4866333 -1.4208833 14.333333 1.5226666 82.666664
-0.71264243 -0.46603468 -1.4280119 12.823529 1.4929411 106.47059
-0.69990999 -0.46118999 -1.4033999 16 1.465 107
0.39971086 -0.48486003 -1.4246364 15.818182 1.4505454 550.27271
0.41000864 -0.48297015 -1.4134573 17.127413 1.4437175 555.62933
0.46507001 -0.46763834 -1.4326334 13.333333 1.4761667 573.83331
-0.87208337 -0.43721333 -1.4299001 10.666667 1.5594999 52
-0.83404303 -0.41406196 -1.4259801 10.2 1.5319 62.400002
-0.72979075 -0.42884645 -1.4334571 14.285714 1.4947855 99.571426
-0.69634998 -0.44530499 -1.40675 9 1.462 108
0.39967 -0.44600001 -1.4088 12 1.425 554
0.40405002 -0.43581223 -1.4115324 14.9 1.4261748 555.70001
0.47409502 -0.4197925 -1.422025 15.5 1.4572499 580.75
-0.85680145 -0.37756142 -1.4368714 8.2857141 1.5435715 55.142857
-0.83818501 -0.38277221 -1.4180276 6.7777777 1.519778 58.111111
-0.75722998 -0.35635501 -1.4433999 20 1.498 88.5
-0.74631333 -0.36001667 -1.4326668 21.333334 1.4846667 90.666664
0.42083168 -0.38146666 -1.42345 12 1.4288334 562.5
0.49326 -0.37348002 -1.4293499 6 1.46 588.5
-0.90425497 -0.32471001 -1.44145 1 1.5605 38.5
-0.85523999 -0.3340975 -1.4218249 12.5 1.5209999 51
-0.83882332 -0.32179335 -1.4042667 10 1.4956666 52.666668
-0.76849002 -0.31082001 -1.4263999 28 1.479 80
-0.74181497 -0.34393498 -1.4052 17 1.45525 87
0.43357751 -0.32660249 -1.4182501 11 1.4165001 570
0.49653 -0.34564999 -1.4214 10 1.448 592
0.50381005 -0.31836501 -1.41925 7 1.4435 596
-0.86118996 -0.29578501 -1.4326999 17 1.526 49.5
-0.77796 -0.25038001 -1.4115 16 1.46 72
0.44367 -0.27930498 -1.4136 13 1.4070001 576
0.46136335 -0.26242667 -1.4402666 11.333333 1.4350001 579
0.52556252 -0.27322 -1.4317999 11.5 1.4554999 603.25
-0.87633502 -0.23872501 -1.4243 18 1.5174999 41
-0.81795001 -0.20532 -1.4498 18 1.506 64
-0.79659998 -0.24690001 -1.4423 20 1.495 71
0.46254402 -0.22493 -1.42118 12.8 1.4124 583.40002
0.53457999 -0.22884333 -1.4245334 23.333334 1.4460001 609
-0.81333005 -0.163715 -1.4168999 22 1.4705 58.5
0.48736501 -0.166705 -1.44195 23 1.434 590.5
0.55623502 -0.16705501 -1.4313 31 1.454 617
-0.90627003 -0.12448 -1.4019001 4 1.502 24
-0.81352001 -0.13879 -1.4016 22 1.455 55
0.48409 -0.116455 -1.4065 7 1.396 596
0.55119997 -0.13607 -1.4023 28 1.423 621
0.81353498 -0.10195 -1.44865 5 1.5955 698
-0.95297003 -0.090535 -1.4421999 0 1.559 17
-0.92550999 -0.080987997 -1.4009 0 1.5089999 17
-0.82163 -0.09668 -1.4039 0 1.4579999 52
0.50799 -0.062567003 -1.4265 4 1.421 602
0.64236337 -0.058250334 -1.4079334 0.66666669 1.467 652.66669
0.68536335 -0.057015147 -1.4165483 1.472973 1.4964933 665.24323
0.71598417 -0.069146566 -1.4093959 1.5 1.5071639 676.45691
0.77750432 -0.091246709 -1.4329214 1.5714285 1.5616428 690.57141
0.80595207 -0.098631799 -1.44478 2.8 1.5877999 696.59998
-0.96822995 -0.020712001 -1.4383668 14.666667 1.5619999 11
-0.17543501 -0.038186498 -1.4051 7 1.266 314.5
0.5950467 -0.019983066 -1.4183334 11.333333 1.452 634.66669
0.64365119 -0.021063916 -1.4421027 2.1176472 1.4963925 646.68628
0.67420363 -0.025907632 -1.4259571 1.8902954 1.4980505 659.88043
0.72243559 -0.02140351 -1.416032 1.2025052 1.5149863 677.46136
0.76924521 -0.01382836 -1.4186609 0.6328125 1.5428665 691.58203
0.80683005 -0.00144835 -1.446225 1.5 1.58675 697.25
-0.98065001 0.00044060001 -1.4374 0 1.568 7
0.59303999 0.0018248 -1.4025 0 1.437 637
0.63020921 0.013779841 -1.4403113 3.8518519 1.4881852 642.51849
0.67809874 0.0053210808 -1.4433811 0.98333335 1.5147328 657.79169
0.72331804 0.0054557007 -1.4413338 0.87850469 1.5366167 672.66357
0.76913065 0.00359033 -1.4448364 0.42307693 1.5644616 686.1731
0.80897498 0.0031866501 -1.4481001 1 1.5895 697.5
0.640176 0.052985001 -1.43362 5.5999999 1.488 647
0.6595 0.057911001 -1.4408 0 1.5039999 652
-0.92027998 0.11938 -1.42435 8 1.528 24
-0.88630003 0.14061999 -1.413 6 1.502 33
-0.85095 0.18953 -1.4461 0 1.517 52
-0.83196402 0.182852 -1.40926 3.2 1.4752001 51.200001
-0.82221669 0.20601332 -1.4319668 2.6666667 1.4926666 59.333332
-0.76086336 0.24251126 -1.4094458 6.9166665 1.4491249 77.375
-0.72647142 0.2452334 -1.4074162 16.621622 1.4323515 89.324326
-0.67550951 0.2449374 -1.4075035 17.458824 1.4107413 107.92941
-0.62454128 0.24505183 -1.4085095 18.873564 1.3915402 127.24138
-0.57485229 0.24508843 -1.4088916 18.623655 1.3738382 146.48387
-0.52491456 0.24510282 -1.4089799 20.617022 1.3573618 166.26596
-0.47533816 0.24503222 -1.4092969 20.66 1.3428398 186.38
-0.42470208 0.24480481 -1.4092927 21.218182 1.3294271 207.31818
-0.37555996 0.24475974 -1.4098402 23.754387 1.3187019 228.07018
-0.32462361 0.24460357 -1.4098212 26.721312 1.3088441 249.86885
-0.27460721 0.24436522 -1.4101295 24.21875 1.3013358 271.57812
-0.22879817 0.24434377 -1.410189 25.84466 1.2959125 291.65048
-0.11388294 0.24373899 -1.4099195 26.941177 1.2888969 342.51471
-0.074560694 0.24395552 -1.4097544 28.484848 1.2889092 359.99243
-0.025329085 0.24390011 -1.4101131 28.927536 1.2910583 381.84058
0.025416827 0.24392533 -1.4099545 29.136 1.2947114 404.272
0.074823253 0.24364084 -1.4101241 27.940298 1.3004327 425.94031
0.12515233 0.24390982 -1.4107155 24.672131 1.3086476 447.75409
0.1745524 0.24369468 -1.4106447 23.430769 1.3178306 468.93076
0.22514586 0.24353215 -1.4106599 23.107437 1.3291734 490.27274
0.27408728 0.24326663 -1.4103154 21.852459 1.3414999 510.59836
0.32523966 0.24350986 -1.4109429 21.107143 1.3571699 531.27679
0.37464055 0.24366812 -1.4105911 16.732143 1.3730272 550.91962
0.42027402 0.24358301 -1.4105514 14.4 1.3893002 568.60999
-0.7560668 0.25999343 -1.4335688 7.9310346 1.4708276 83.793106
-0.72481781 0.25983942 -1.4323001 14.135593 1.4559999 94.581924
-0.67507213 0.25997102 -1.4328288 16.462427 1.4357399 112.58959
-0.62540203 0.25950435 -1.432591 18.682081 1.4161847 130.93642
-0.57516474 0.25950372 -1.4329253 18.954546 1.3985286 150.08522
-0.52517629 0.25947008 -1.4333893 21.17514 1.3826669 169.62148
-0.47510794 0.25926673 -1.4336261 21.534883 1.3681749 189.5872
-0.42498216 0.25947639 -1.4340637 22.51111 1.3556335 210.00555
-0.37472582 0.25913161 -1.4341134 23.757225 1.3443525 230.7919
-0.32505339 0.25941941 -1.4349548 24.625698 1.335838 251.72067
-0.27541837 0.25924593 -1.4353197 21.717514 1.3285935 272.8418
-0.23023207 0.25924417 -1.4351162 26.333334 1.3230484 292.22223
-0.11413192 0.25871882 -1.4353888 28.058252 1.3165923 342.56311
-0.075576499 0.2589514 -1.4355626 29.458563 1.3169223 359.33701
-0.024382364 0.25866908 -1.435438 28.930233 1.3185704 381.58722
0.025088863 0.25887465 -1.4357758 28.934067 1.3225815 402.98352
0.075164929 0.25852329 -1.4355751 28.414202 1.3278885 424.5148
0.12451204 0.25837824 -1.4356247 26.313953 1.3352094 445.51163
0.17519774 0.25844315 -1.4360166 26.024391 1.3449327 466.78049
0.22456953 0.25828519 -1.4360803 23.891565 1.3558189 487.21686
0.27490705 0.25798157 -1.4358007 19.89937 1.3683144 507.72955
0.32410172 0.25798732 -1.4356084 22.819277 1.3823198 527.37952
0.37519613 0.25849596 -1.4360917 19.443708 1.3992645 547.2384
0.41901049 0.25875151 -1.4358351 17.365854 1.414431 563.98376
-0.21112715 0.31989571 -1.4102571 11.428572 1.3089999 300
-0.12935333 0.34522334 -1.4230666 0.66666669 1.3226666 336
0.34439999 0.33017999 -1.4158 0 1.3839999 536
0.35501999 0.33419999 -1.4394 0 1.41 537
-0.12906 0.3506 -1.40925 1 1.3105 336
-0.21696 0.40689999 -1.4289 16 1.349 299
-0.12741999 0.40755001 -1.4234999 16 1.339 337
-0.31584999 -0.60056001 -1.3508 18 1.354 257
-0.17639001 -0.60034001 -1.3503 18 1.3380001 316
-0.1233 -0.6012125 -1.3513501 16 1.3372501 338.75
-0.071368873 -0.60126001 -1.3514374 18.75 1.3373749 361
-0.029817998 -0.60075998 -1.3505 18.4 1.3378 378.79999
0.032470476 -0.60120153 -1.351621 18.31579 1.3435264 405.3158
0.08306171 -0.60071218 -1.3516358 18.714285 1.3491428 426.71429
0.12739071 -0.60122931 -1.3517572 20 1.356143 445.25
0.174757 -0.60151803 -1.3521954 20 1.3652751 464.82501
0.22910203 -0.60153961 -1.3530456 19.636364 1.3778865 486.90909
0.2771793 -0.60206324 -1.3527334 20.350878 1.3899822 506.17545
0.32741311 -0.60216063 -1.3532171 19.688313 1.4047922 525.85712
0.37489516 -0.60155427 -1.353457 16.063492 1.4198415 544.12701
0.42508459 -0.60250014 -1.3526314 16.714285 1.4369429 563.05713
0.47551635 -0.60198092 -1.3542907 16.506666 1.457226 581.34668
0.52817672 -0.60226852 -1.3542409 14.253521 1.478775 600.09857
0.57249117 -0.60225397 -1.3535227 14.242424 1.4974546 615.57574
0.6250779 -0.60223907 -1.3544366 14.285714 1.5224156 633.14288
0.67322004 -0.60256809 -1.3555052 13.532468 1.5467923 648.64935
0.7237674 -0.60284752 -1.3551041 12.43299 1.5723605 664.6701
0.77542645 -0.60284668 -1.355987 12.4 1.6006093 680.29523
0.81852919 -0.60267812 -1.3559161 12.063492 1.6243651 693.07935
-1.0502 -0.56638002 -1.3980501 12 1.666 1
-1.020542 -0.57699007 -1.3778306 11.815562 1.6371474 6.6080689
-0.97721088 -0.57910955 -1.3746248 12.946836 1.6113309 18.903797
-0.91823214 -0.57682532 -1.3742762 10.312684 1.5788434 36.587021
-0.8806842 -0.57862562 -1.3748688 13.313531 1.5607458 48.607262
-0.82770693 -0.57875633 -1.3758985 12.997613 1.535697 65.890213
-0.77402925 -0.57770544 -1.3745925 13.327338 1.5094748 83.521584
-0.72545648 -0.57874918 -1.3699191 14.306418 1.4847634 99.623192
-0.67560619 -0.57610506 -1.3724866 17.482428 1.4656175 117.47604
-0.62500072 -0.5802623 -1.3750936 13.692036 1.4501151 136.48849
-0.57519788 -0.58020943 -1.3749168 13.938628 1.4325526 155.01805
-0.52491248 -0.58039391 -1.3751248 14.374368 1.4168169 174.22429
-0.47482511 -0.58093804 -1.3751693 14.736842 1.4027444 193.76231
-0.42463323 -0.58155513 -1.3749506 14.377049 1.3901086 213.69508
-0.37481716 -0.58200282 -1.3750618 15.197411 1.3794841 233.83495
-0.32495007 -0.58291757 -1.3749007 15.88122 1.3705202 254.27608
-0.27512586 -0.5831818 -1.3750929 16.44409 1.3633957 274.94888
-0.22517605 -0.5834955 -1.3747669 16.905956 1.3575951 295.84326
-0.17527847 -0.58393556 -1.3746161 16.821152 1.3538301 316.87091
-0.12548329 -0.58436465 -1.3748939 17.328026 1.3522888 337.95062
-0.075598687 -0.58478898 -1.3749985 18.339563 1.3524219 359.08566
-0.025307914 -0.58524531 -1.3752959 18.35873 1.354598 380.35715
0.025177084 -0.58556199 -1.3755109 17.661392 1.358531 401.61392
0.07485836 -0.58622944 -1.3754659 18.442244 1.3641127 422.39273
0.12482665 -0.58687049 -1.3758297 18.639317 1.3718765 443.0701
0.17476539 -0.58710843 -1.3760633 18.759451 1.3811378 463.49829
0.22495115 -0.58740675 -1.3764822 18.98917 1.3923669 483.70758
0.27492297 -0.5878154 -1.3764218 18.423441 1.4048599 503.53119
0.32464734 -0.58746761 -1.3778876 19.281664 1.4199934 522.75238
0.37469605 -0.58774561 -1.3782307 16.32411 1.4360471 541.77667
0.42471832 -0.58828729 -1.3769486 15.793103 1.4523423 560.54156
0.4745411 -0.58785218 -1.3784302 15.419913 1.4720666 578.4762
0.5238058 -0.58801442 -1.3783666 14.96087 1.4918905 595.91522
0.57448941 -0.58817858 -1.3782051 15.070796 1.5136086 613.3761
0.62440878 -0.58858061 -1.3785243 13.640777 1.5368017 629.98303
0.67470902 -0.58893597 -1.378953 13.744898 1.5615112 646.19135
0.72508836 -0.58871365 -1.3797996 13.165775 1.5875982 661.87701
0.77471054 -0.58872807 -1.3798448 12.188571 1.6138915 676.94
0.82315356 -0.58787125 -1.3804169 11.311178 1.6407094 691.14502
0.8525359 -0.58002752 -1.3946834 11.5 1.6655833 697.58331
-0.91582841 -0.5420242 -1.3662583 7.6666665 1.5599999 33.416668
-0.86950749 -0.52649003 -1.3755502 19.833334 1.5389165 48.666668
-0.84766668 -0.51676333 -1.3596334 28 1.512 52.333332
-0.76014996 -0.54440075 -1.3817158 19.649122 1.4978775 87.210526
-0.72226304 -0.54105186 -1.3674272 20.082191 1.4683557 98.027397
-0.67944026 -0.53022355 -1.3641733 26.719368 1.4442602 112.16996
-0.86957783 -0.47872287 -1.3811216 16.857143 1.5292856 46.57143
-0.83875674 -0.47794333 -1.3682833 15.666667 1.5031667 54.333332
-0.76420832 -0.4624933 -1.3807501 10.333333 1.4738334 80.833336
-0.744425 -0.48217499 -1.3635 20 1.4560001 86
-0.68182296 -0.47946575 -1.3635192 13.558824 1.4285589 108.35294
0.41866279 -0.46749184 -1.389057 21.847561 1.4205272 562.87195
-0.86128497 -0.42444 -1.38905 11 1.517 47.5
-0.8342123 -0.42398998 -1.3762691 18.615385 1.4928461 54.076923
-0.77923661 -0.43563667 -1.3894333 19.333334 1.4806666 75.666664
-0.70709282 -0.41850144 -1.3797429 13.428572 1.4358571 98.571426
-0.68580997 -0.42280126 -1.3648626 12.75 1.415125 104.125
0.39969167 -0.42220166 -1.39175 16.666666 1.4031668 557.33331
0.41563353 -0.42390198 -1.3690137 22.716007 1.3892447 566.58521
0.45725 -0.41141 -1.3860668 14.666667 1.4166666 580.33331
-0.82233495 -0.37955457 -1.3830999 8 1.481923 56.96154
-0.78402746 -0.38233751 -1.362525 9.5 1.44675 66.5
-0.70515406 -0.377112 -1.367 16.4 1.4136001 95.199997
0.3998 -0.38759798 -1.37196 20 1.3764 561.59998
0.40329728 -0.37879533 -1.3645031 19.030674 1.3688279 564.41107
0.46230999 -0.38039857 -1.3777714 13.428572 1.4035715 584.85712
-0.81948918 -0.3363975 -1.3730917 8.333333 1.4625834 54
-0.73165673 -0.33774665 -1.3817333 14.666667 1.429 86.333336
0.40539101 -0.33817863 -1.3601929 18.142857 1.3560715 567.46429
0.48227 -0.32945749 -1.386425 23.5 1.40775 593
-0.83000165 -0.27656168 -1.37465 11 1.4578333 48.166668
-0.75485498 -0.25646502 -1.37395 27 1.4175 73.5
-0.73343003 -0.28625 -1.3558 8 1.397 79
0.42910999 -0.27936 -1.3812001 14 1.372 575.5
0.49243665 -0.28790998 -1.3803667 31.333334 1.3983332 599.33331
0.51126999 -0.25023001 -1.3952 38 1.413 605
-0.75864202 -0.22544798 -1.36782 19.6 1.4092 70
0.43103996 -0.22914334 -1.3569001 14 1.3423333 581.66669
0.51666999 -0.22348 -1.3881 34 1.405 609
-0.87005836 -0.17677332 -1.3766832 8 1.4663334 31.833334
-0.77540004 -0.1835425 -1.36745 17.5 1.4115 62.75
0.4499 -0.17647 -1.365 28 1.35 589
0.45421001 -0.15716 -1.3654 30 1.35 591
0.52082664 -0.16803999 -1.3636667 10.666667 1.3783334 616.33331
-0.88841498 -0.13942501 -1.3868999 18 1.4809999 27
-0.81765002 -0.10171 -1.3966 0 1.45 52
-0.79093003 -0.1401 -1.3663499 12 1.4135001 56
0.47431001 -0.11681 -1.385 13 1.3724999 596
0.53510004 -0.13071001 -1.3711667 24 1.3876667 621
-0.89523 -0.072561003 -1.3506 2 1.45 16
-0.78346002 -0.084462002 -1.3676 40 1.4069999 58
0.47043249 -0.08712925 -1.360325 11.5 1.3465 599.25
0.69395196 -0.060392 -1.39782 2 1.4851999 671.79999
0.73112059 -0.064758144 -1.389348 1.9298246 1.4984939 685.50293
0.75740504 -0.07152614 -1.3808267 1.6428572 1.5064113 695.55951
-0.93919331 -0.016823366 -1.3920332 6.6666665 1.5073333 10.333333
-0.17268501 -0.03471975 -1.3783 5 1.239 315
0.50222999 -0.031753998 -1.3981 4 1.392 605
0.56253004 -0.046251498 -1.3738999 22 1.398 631.5
0.69246376 -0.047740873 -1.3967999 2.5 1.483125 671.625
0.72974437 -0.042124692 -1.3940794 1.4109589 1.5009319 684.24658
0.7605722 -0.03763568 -1.3915795 1 1.5159395 694.53027
0.58002752 0.024614001 -1.3658 11.5 1.3987501 639.5
-0.91384 0.091935001 -1.3684 0 1.476 14
0.59103 0.096029997 -1.3648 2 1.406 643
0.61023164 0.080339171 -1.3663834 1.6666666 1.416 649.66669
-0.90307999 0.11463 -1.3929 8 1.492 23
-0.86330336 0.13643333 -1.3760667 2 1.4583334 33
0.58664 0.10507333 -1.3765668 2 1.4146668 639
0.67601001 0.14239499 -1.3815501 1 1.467 668
-0.83429003 0.16315499 -1.3792 1 1.4484999 44
-0.78934997 0.19918001 -1.3766999 7 1.428 60
-0.75619322 0.225889 -1.3772327 7 1.41635 72.625
-0.72434866 0.22619942 -1.3748215 16.308823 1.3997906 83.731621
-0.67458659 0.22558729 -1.374052 15.818182 1.3774266 102.07692
-0.62483788 0.22565632 -1.3745773 17.677193 1.3578004 121.23859
-0.57499802 0.22549658 -1.3745079 19.751724 1.3391249 140.87585
-0.52557874 0.22531202 -1.3742774 20.40523 1.322049 160.84314
-0.47521472 0.22539842 -1.3750161 21.425806 1.3073033 181.83871
-0.42545709 0.22486937 -1.3742033 22.66881 1.292923 202.83601
-0.37484789 0.22484183 -1.3746176 23.515724 1.2813994 224.77359
-0.32502592 0.22427779 -1.3739011 25.507887 1.2707419 246.63406
-0.27476779 0.22398858 -1.3737762 26.507837 1.2625171 269.06897
-0.22440512 0.22463931 -1.3727292 22.985336 1.2555047 291.78592
-0.17496139 0.21811394 -1.3550951 50.5 1.233031 313.76736
-0.12552585 0.22265197 -1.3655561 33.436462 1.241941 336.81769
-0.075578734 0.22347718 -1.3744364 27.059525 1.2506967 359.83035
-0.025042459 0.22287357 -1.3733436 27.713432 1.2514092 382.98209
0.024890617 0.22331302 -1.3745023 26.57485 1.2564762 405.69461
0.074473433 0.22266814 -1.3734843 23.927927 1.2611555 428.16818
0.12472599 0.22328652 -1.374539 22.524691 1.2700863 450.5679
0.17492975 0.22286917 -1.3744251 23.304075 1.2796332 472.72101
0.2248321 0.2226008 -1.3738694 22.515337 1.2905858 494.43253
0.27541167 0.22245774 -1.3739122 22.441559 1.3041325 515.95453
0.32510969 0.22281587 -1.374427 21.818182 1.3197273 536.57141
0.37540227 0.22258186 -1.3741205 18.31068 1.3363466 557.05499
0.42181566 0.2220383 -1.3730748 16.984375 1.352398 575.62109
-0.20311001 0.25393599 -1.3557401 9.6000004 1.2418 301
-0.12754332 0.27399069 -1.3629036 6.0666666 1.2485667 336
-0.20696999 0.31632 -1.3623333 7.3333335 1.2613333 300
-0.12822188 0.31979951 -1.3814191 3.6190476 1.2762858 336
0.33576 0.32879999 -1.3974 0 1.364 535
-0.213635 0.39442497 -1.3806 12 1.299 298.5
-0.12617144 0.39087644 -1.3638214 14.857142 1.2770001 336.92856
-0.2164 0.40009999 -1.3975 16 1.317 298
-1.0069897 -0.60823262 -1.320653 12.151898 1.5966457 2.556962
-0.97646546 -0.60971236 -1.3178962 12.759494 1.5779302 11.29114
-0.92158598 -0.60932112 -1.316893 10.232558 1.5471205 27.944185
-0.87672716 -0.61008376 -1.3182427 13.552325 1.5249975 42.517441
-0.81766993 -0.61010283 -1.3167366 12.663794 1.494483 61.711208
-0.77497715 -0.61064065 -1.319029 12.466346 1.4764243 76.665863
-0.72460449 -0.61054814 -1.3191758 13.164384 1.4540656 94.317352
-0.67453569 -0.61076212 -1.3189989 13.667437 1.4331062 112.3649
-0.62526894 -0.61058664 -1.3197237 14.3125 1.4145113 130.72768
-0.57500905 -0.61112106 -1.31915 14.297521 1.3962446 149.82025
-0.52524054 -0.61127234 -1.319562 15.077868 1.3804157 169.29507
-0.47450608 -0.61121839 -1.3203839 15.493333 1.3662287 189.61714
-0.42447653 -0.61167073 -1.3208495 15.253284 1.3538531 210.04128
-0.37500864 -0.61189169 -1.3217739 15.823741 1.3436636 230.60971
-0.32502973 -0.61251324 -1.3215029 15.952137 1.3342363 251.61197
-0.27493778 -0.61273909 -1.3218977 16.453947 1.3270446 272.95889
-0.2248525 -0.61283553 -1.3224185 17.262136 1.3217745 294.51132
-0.17509195 -0.61259234 -1.3232689 17.189543 1.3185605 316.06372
-0.12494605 -0.61340368 -1.322875 17.310127 1.3165278 337.85284
-0.075312681 -0.61315423 -1.3238959 18.349304 1.3172325 359.45132
-0.024796447 -0.61388654 -1.3235408 18.944273 1.3190173 381.39783
0.025089402 -0.61412317 -1.3240242 17.391975 1.3232274 402.95679
0.075366735 -0.61432546 -1.3244793 18.798771 1.3293003 424.52075
0.12483508 -0.61467403 -1.3251373 20.245724 1.3373475 445.49612
0.17523043 -0.61567307 -1.3245115 19.901081 1.3464832 466.66153
0.22476403 -0.61580294 -1.3246228 19.581102 1.3575144 487.12598
0.27467817 -0.61643785 -1.3244747 19.823435 1.3703346 507.39487
0.32466477 -0.61676168 -1.3247292 19.327787 1.3850753 527.25787
0.37501693 -0.61658365 -1.3252444 17.973154 1.4015957 546.8205
0.42492273 -0.61741269 -1.3243316 18.04878 1.4187331 565.86584
0.47494936 -0.61718613 -1.3246315 17.36915 1.4380523 584.37781
0.52463549 -0.61745781 -1.324471 16.0651 1.4584997 602.29474
0.57494485 -0.61783814 -1.3246715 15.84029 1.4809494 619.84753
0.62506413 -0.61802334 -1.3253131 14.540953 1.5049254 636.74097
0.67526126 -0.61851561 -1.3253503 13.917485 1.5298532 653.19452
0.72469825 -0.61958063 -1.3241842 12.677551 1.5548774 669.03467
0.77465934 -0.61928988 -1.3251094 12.745182 1.582445 684.25909
0.81220877 -0.61684138 -1.3294637 11.819905 1.6057906 694.88153
-1.0118101 -0.59549922 -1.3421524 11.830986 1.611169 4.0563378
-0.9748469 -0.59596753 -1.3424002 12.617647 1.5908602 15.117647
-0.91853756 -0.58927584 -1.3367733 9.6603775 1.5538431 30.8239
-0.88086563 -0.59296989 -1.3409523 12.478633 1.538838 43.777779
-0.82115346 -0.59266376 -1.3354925 14.119403 1.5048136 62.350746
-0.77899188 -0.58603662 -1.3373964 13.243524 1.4841964 76.435234
-0.72548372 -0.59662205 -1.3446461 12.387096 1.4701694 96.94355
-0.6759814 -0.59682435 -1.3436493 13.782609 1.4489415 114.5
-0.62445146 -0.59662086 -1.3433368 14.17742 1.4287822 133.3871
-0.57494009 -0.5963378 -1.344553 13.797101 1.4122102 152.21014
-0.52499247 -0.59710348 -1.3438863 14.583941 1.39581 171.46715
-0.47527918 -0.59658158 -1.3450751 14.8 1.3822157 191.192
-0.42706382 -0.59713089 -1.3446616 14.596154 1.3696538 210.57692
-0.37636402 -0.59761274 -1.3458825 15.25 1.3596151 231.45192
-0.32523003 -0.59798008 -1.3457748 15.686747 1.350096 252.69879
-0.27601796 -0.59801638 -1.3466291 17.060242 1.3434337 273.44577
-0.22445123 -0.59810174 -1.3469523 17.661539 1.3378612 295.35385
-0.17229605 -0.59849548 -1.347298 17.517241 1.3343965 317.67242
-0.12787959 -0.59853971 -1.3472921 17.280001 1.3326401 336.73999
-0.073583104 -0.59854376 -1.3479785 18.432432 1.3331081 360.08109
-0.022631573 -0.59859043 -1.3480794 18.615385 1.3350768 381.94873
0.019813567 -0.59922051 -1.3473389 18.666666 1.3377222 400.11111
0.070475884 -0.59882003 -1.3487648 17.411764 1.3441764 421.58823
0.1148925 -0.59859252 -1.3495001 18 1.3510001 440.25
0.17038667 -0.59876996 -1.3491334 17.333334 1.3606666 463.33334
0.21336499 -0.59959996 -1.34855 22 1.3694999 481
0.27048999 -0.59845001 -1.3497 18 1.3839999 504
-0.90461749 -0.54120749 -1.32715 14.5 1.523 29.75
-0.88103634 -0.52416861 -1.3213862 7.3636365 1.5006818 35.045456
-0.82825053 -0.52639997 -1.3233367 19.263159 1.4760525 53.052631
-0.76942998 -0.54939002 -1.3423001 14 1.471 78
-0.70801598 -0.51790667 -1.3403566 23.163637 1.4318181 97.400002
-0.68665963 -0.51514602 -1.3415726 25.037838 1.4229728 105.20541
-0.86157006 -0.48417002 -1.33218 9 1.4870999 40.599998
-0.82428735 -0.47453547 -1.3241817 13.909091 1.4589093 51
-0.70879954 -0.47482416 -1.3177009 24.342857 1.3994513 90.765717
-0.68369228 -0.47340041 -1.3238474 24.553398 1.393496 100.99515
-0.8110218 -0.41434363 -1.3287818 17.636364 1.4394546 52.636364
-0.78531003 -0.41701832 -1.3132 9.333333 1.4146667 58.833332
-0.71599805 -0.44143841 -1.3063577 23.23077 1.3831923 84.192307
-0.67951643 -0.43021891 -1.315317 22.462185 1.371748 98.710083
0.4191086 -0.40132999 -1.3493286 25.142857 1.3668573 571.85712
-0.80683887 -0.37636444 -1.3262554 13.555555 1.4258888 51.444443
-0.7813822 -0.37656957 -1.3232272 11.909091 1.4109091 59.81818
-0.67899829 -0.38564318 -1.3129221 20.074074 1.3574629 96.129631
0.41840312 -0.37304768 -1.3360995 25.102119 1.3476937 574.87091
0.452135 -0.362295 -1.3483 18 1.369 586.5
-0.80626005 -0.33632001 -1.33365 20.5 1.42275 51
-0.78745514 -0.33184892 -1.3189778 11.222222 1.4001665 54.555557
-0.70924753 -0.32216874 -1.3336126 17.75 1.3738749 85.375
-0.69487602 -0.31834799 -1.31146 15.2 1.3474001 86.599998
0.39984334 -0.33699 -1.3427666 20.666666 1.3379999 568
0.41506213 -0.32751879 -1.3171455 23.813953 1.3188026 578.51996
0.45716602 -0.320402 -1.3325999 11.6 1.3478 592.79999
-0.80040002 -0.28532001 -1.3351001 18 1.411 51
-0.78744 -0.28193 -1.3128 6 1.385 51
-0.71646291 -0.27441856 -1.3175429 16.571428 1.3538572 77.714287
0.4030464 -0.2796942 -1.3137395 19.186207 1.3011034 576.04828
0.46578249 -0.2769725 -1.3231001 8.5 1.33425 599.5
-0.81774247 -0.22651251 -1.328275 11.5 1.4045 41.25
-0.79561502 -0.247805 -1.30955 17 1.3805001 46
-0.73526496 -0.224095 -1.32725 15 1.3627501 70.75
0.40784332 -0.23522265 -1.31048 16.533333 1.2921333 580
0.47506833 -0.22573666 -1.3132167 22 1.3208333 606.66669
-0.75724 -0.16810501 -1.32495 11 1.364 60.5
-0.74155396 -0.18186 -1.31064 18 1.3455999 63.799999
0.43087 -0.1745875 -1.3267624 19 1.3075 588.125
0.49231663 -0.17698 -1.3157001 13.333333 1.324 614.33331
0.50032002 -0.19817001 -1.3415 6 1.353 612
-0.85464668 -0.12639999 -1.3267666 8 1.4113332 25.333334
-0.82876998 -0.14698 -1.3003 6 1.377 29
-0.77373999 -0.1166 -1.3281 6 1.37 54
0.4442175 -0.13009501 -1.3303 14 1.3115 593.75
0.45137501 -0.12408 -1.34255 7 1.325 594.5
0.50221997 -0.11842 -1.3027 32 1.311 622
-0.76001328 -0.072223671 -1.3263999 9.333333 1.3589998 58
0.45838332 -0.065854333 -1.3242 12.666667 1.3076667 601.33331
-0.87936997 -0.032451998 -1.3147 26 1.41 13
-0.16960323 -0.031145319 -1.3149785 11.142858 1.1755358 314.60715
0.46004999 -0.012822 -1.3099999 0 1.294 605
0.53991663 -0.031890865 -1.3261666 18 1.3449999 632.66669
0.55285001 -0.019663 -1.3389 0 1.362 635
0.54282999 0.022569999 -1.301 28 1.324 639
0.55552667 0.019395834 -1.3255333 10 1.3516666 638.66669
-0.88778001 0.088214003 -1.3293333 1.3333334 1.429 14
0.59265 0.062545002 -1.3209 34 1.367 653
-0.86680001 0.10573 -1.3322999 0 1.421 22
-0.817325 0.14416999 -1.3283501 6 1.3945 39
-0.79545999 0.14964999 -1.3051 2 1.364 42
-0.75725001 0.18942764 -1.3193059 5.1764708 1.3615882 59.941177
-0.72445983 0.1917963 -1.3157266 14.49162 1.343201 71.530724
-0.67453986 0.19120483 -1.3150752 15.117949 1.3199694 90.548721
-0.62556356 0.19111007 -1.3149804 16.557896 1.2991841 109.95263
-0.57596982 0.19130379 -1.3153292 18.349514 1.2801648 130.30096
-0.52475679 0.19081958 -1.3146946 19.433962 1.2612408 151.76414
-0.47457129 0.19114608 -1.3153265 20.772728 1.245759 173.58636
-0.4250946 0.19113418 -1.315742 21.368422 1.2320567 195.57895
