# .PCD v0.7 - Point Cloud Data file format
VERSION 0.7
FIELDS x y z
SIZE 4 4 4
TYPE F F F
COUNT 1 1 1
WIDTH 698
HEIGHT 1
VIEWPOINT 0 0 0 1 0 0 0
POINTS 698
DATA ascii
0.76850998 0.14368001 -1.704
0.75871003 0.13986 -1.6993999
0.75726998 0.14135 -1.6967
0.80892503 0.145265 -1.6831501
0.81432003 0.14525335 -1.6830333
0.82226002 0.14421001 -1.68115
0.81263 0.15064333 -1.6858667
-0.89695001 -0.37099001 -1.6782
-0.897645 -0.36801499 -1.6768
0.80680752 0.138605 -1.6738499
0.81423748 0.13767751 -1.67275
0.82286251 0.13639501 -1.672075
0.83332998 0.13766 -1.6727
0.84159005 0.13587999 -1.671325
0.81481093 0.14451818 -1.6766274
0.8264634 0.14260499 -1.6750499
0.83147001 0.14183 -1.6723
0.79661 0.12847 -1.6603
0.80129999 0.12862 -1.6622
0.82526499 0.12868001 -1.6630499
0.83348 0.12685999 -1.6617
0.84447592 0.127378 -1.66408
0.80709332 0.13397333 -1.6614332
0.81466717 0.13575858 -1.6668714
0.82473296 0.13451199 -1.6665399
0.83376122 0.13255875 -1.6654999
0.84557009 0.13369401 -1.66655
0.82014 0.1407 -1.6687
-0.87931001 -0.37549999 -1.65535
0.83564997 0.11958 -1.6538666
0.84094 0.11935 -1.6506
0.80607605 0.12825401 -1.65334
0.81573778 0.12610777 -1.6544335
0.82520753 0.12567499 -1.65715
0.83440334 0.12522446 -1.6553777
0.84598434 0.12492143 -1.6558
0.85458404 0.12689799 -1.6578
0.87431002 0.12426 -1.6505001
0.81821501 0.131505 -1.65715
0.82244998 0.13135 -1.6552
-0.99355 -0.41518 -1.6432
0.81540877 0.11614124 -1.6424127
0.82500803 0.11504301 -1.64273
0.83356601 0.115388 -1.64484
0.84544712 0.11706857 -1.6445571
0.85305005 0.114556 -1.6433399
0.80511749 0.1238525 -1.64485
0.81216747 0.1226925 -1.64625
0.82339162 0.12181833 -1.6474999
0.83496332 0.12067 -1.6466999
0.845155 0.12079 -1.64845
0.85360664 0.12070667 -1.6472667
-0.98755002 -0.42256999 -1.6306
-0.98954999 -0.41844001 -1.6352
-0.86004001 -0.38859999 -1.6335
0.80430806 0.108982 -1.63148
0.81471997 0.10965333 -1.6321334
0.82620502 0.10838833 -1.6324166
0.83631331 0.10707334 -1.6312833
0.84654796 0.107392 -1.63468
0.80429602 0.116264 -1.6344999
0.81523502 0.114295 -1.6370749
0.82568997 0.11007 -1.6382999
0.83506995 0.11392888 -1.6382445
0.84501672 0.11348334 -1.6370335
0.85541403 0.112098 -1.6368001
0.81832999 0.099280998 -1.6212
0.82630998 0.099361993 -1.6225001
0.83921999 0.099565998 -1.6258
0.84493333 0.099417001 -1.6234001
0.79602402 0.107426 -1.6260401
0.80518508 0.10457 -1.6216501
0.81480366 0.10513454 -1.6251
0.82531625 0.10411375 -1.624925
0.83517373 0.10514375 -1.6262376
0.84329003 0.10257401 -1.62518
0.803285 0.111155 -1.6278501
0.79551667 0.098772667 -1.6128668
0.80594397 0.096887402 -1.6138599
0.81170338 0.09777233 -1.6143667
0.82809335 0.095477007 -1.6121668
0.83543998 0.095985994 -1.6167285
0.84512269 0.095656998 -1.6150638
0.79517502 0.10164001 -1.6140833
0.80328 0.10255 -1.6196001
0.81277996 0.10143 -1.6197666
0.826105 0.100825 -1.6192
0.83130997 0.10081 -1.6188999
0.84644997 0.10087 -1.62
0.85786003 0.10057 -1.615
0.86608005 0.10252 -1.6191
-0.95485002 -0.43186 -1.601
-0.92759001 -0.43131 -1.602
-0.93506002 -0.42928001 -1.6036
0.80879003 0.088441998 -1.6006
0.82503998 0.086871997 -1.60115
0.83564001 0.084877744 -1.6010751
0.84805328 0.088747658 -1.6061667
0.79513836 0.095094658 -1.6056833
0.80534822 0.092484541 -1.6057273
0.81561923 0.093789071 -1.6065
0.82448798 0.0932758 -1.6073
0.83422625 0.091017 -1.6041374
0.85479665 0.090287663 -1.6052666
-0.95370501 -0.43729749 -1.594175
-0.91847998 -0.43101001 -1.5913
-0.93092 -0.42414001 -1.5908
-0.92878002 -0.42473999 -1.5931
0.83126003 0.078542002 -1.5917
0.79945499 0.085702501 -1.5942
0.80592602 0.085584797 -1.5950201
0.81490749 0.085005879 -1.5939686
0.82509434 0.086324856 -1.5952141
0.83563697 0.083053 -1.59496
0.84445626 0.083544381 -1.59455
-0.95129329 -0.44778666 -1.5879666
-0.92491001 -0.44341999 -1.5807
-0.94810998 -0.43985 -1.5801001
0.78145999 0.078213997 -1.5851001
0.79646748 0.078156501 -1.5840499
0.80481339 0.077109002 -1.5844165
0.81326199 0.076226398 -1.58356
0.82350999 0.076253332 -1.5846444
0.83542997 0.075648539 -1.5856819
0.84369999 0.074502751 -1.5820749
0.79401702 0.084187999 -1.58654
0.80423802 0.082931995 -1.58676
0.81501669 0.08238367 -1.5864
0.8232767 0.082480669 -1.5883001
0.83511335 0.084577672 -1.5881001
0.84064996 0.083703503 -1.5866001
-0.95023 -0.45497999 -1.5734
-0.94328666 -0.43232667 -1.5755
-0.90842998 -0.43718001 -1.5705
0.77919 0.069504 -1.5704
0.78529 0.069572002 -1.57195
0.7961933 0.069732666 -1.5756
0.80352002 0.069513001 -1.5706
0.81565332 0.069626331 -1.5731999
0.82342499 0.069554999 -1.5716
0.83551568 0.06671457 -1.5743716
0.79527408 0.074792199 -1.57388
0.80572438 0.074367449 -1.5745221
0.8154133 0.073015995 -1.5763665
0.82287002 0.071880661 -1.5752001
0.83428997 0.074533999 -1.5744333
0.84148002 0.071310997 -1.5747
-0.94396996 -0.46218997 -1.563
-0.94218004 -0.45748502 -1.5641999
-0.93810499 -0.457165 -1.5631499
-0.89754498 -0.44069499 -1.56795
-0.91758502 -0.434275 -1.5631001
-0.898 -0.43533999 -1.5639
0.82503003 0.058111001 -1.5609
0.77710003 0.067767002 -1.5671
0.78346997 0.067732334 -1.5662999
0.79564667 0.067659333 -1.5646501
0.8064062 0.06650313 -1.56565
0.81539381 0.065867998 -1.5647125
0.82454228 0.065913223 -1.5652666
0.83549219 0.06358555 -1.5640666
0.84593993 0.065118998 -1.5672334
0.85092002 0.069367997 -1.5674
0.79380673 0.072613664 -1.5679001
0.80672002 0.073384501 -1.56725
0.82456499 0.070998996 -1.5678
0.83047998 0.071041003 -1.5687
-0.95670998 -0.46691999 -1.5503
-0.89276505 -0.432735 -1.5546
0.79290336 0.057697665 -1.5506001
0.806108 0.0587162 -1.55212
0.81520998 0.058623753 -1.5538249
0.82484001 0.055909112 -1.5540445
0.83516598 0.055062495 -1.5554199
0.7922166 0.06406267 -1.5546999
0.80508327 0.063097335 -1.5568666
0.81410503 0.061733499 -1.5547
0.82106996 0.061837502 -1.55735
-0.95877999 -0.46783 -1.5476
0.8150925 0.04895775 -1.5432
0.82462001 0.047365502 -1.5418
0.83455175 0.04821917 -1.5443832
0.78504163 0.056240331 -1.5463166
0.79521006 0.056731332 -1.5452166
0.80371833 0.055111002 -1.5441999
0.81464142 0.054185998 -1.5458
0.82381999 0.053650498 -1.5457
0.83107001 0.053752501 -1.5487
0.84325999 0.051421002 -1.5485001
0.8039 0.060563665 -1.5442667
-0.94354999 -0.47295001 -1.5371
-0.94714999 -0.46590748 -1.533425
-0.92606664 -0.45607665 -1.533
-0.86913002 -0.45835999 -1.5332
0.82600999 0.038614001 -1.5309
0.83363992 0.038636997 -1.5318333
0.78365833 0.048679996 -1.5344501
0.79570502 0.0485995 -1.5318999
0.80299664 0.047336329 -1.5326
0.81477267 0.045658365 -1.5343362
0.82394838 0.046709836 -1.5372667
0.83561176 0.043016367 -1.5346909
0.79772747 0.051711746 -1.5350001
0.80504 0.052560002 -1.53825
-0.936315 -0.46232998 -1.5242
-0.90338999 -0.46628001 -1.5209
-0.91895998 -0.45820999 -1.5214
0.79795504 0.039159998 -1.5223999
0.80625325 0.037891999 -1.522
0.8159067 0.039465334 -1.5243999
0.82598752 0.035812251 -1.5243751
0.83521551 0.035703633 -1.5242726
0.79519397 0.045471795 -1.52484
0.8036679 0.042765003 -1.5263599
0.81691837 0.0422865 -1.5258499
0.82487005 0.041164503 -1.526525
0.83820999 0.0408305 -1.5281
0.84476662 0.041109998 -1.5290999
0.85210001 0.041579001 -1.5276999
0.80137002 0.050806001 -1.53
-0.95528996 -0.48685998 -1.51705
-0.94870001 -0.48677 -1.5175
-0.93582499 -0.47636998 -1.51285
-0.90640002 -0.47678 -1.5171
-0.90289998 -0.46755999 -1.5196
0.55321997 -0.053927999 -1.5106
0.55278999 -0.041813001 -1.5101
0.82841998 0.029258 -1.5139
0.79371744 0.036668252 -1.5132999
0.80566812 0.035224363 -1.5154454
0.81527805 0.034907598 -1.51484
0.82328671 0.032240499 -1.5156502
0.8343575 0.031875499 -1.51615
0.84334666 0.034295004 -1.5185333
-0.94514 -0.49094999 -1.5037
-0.94436502 -0.48649502 -1.5008
-0.90948999 -0.48703 -1.5072
-0.94295996 -0.47685668 -1.5083666
-0.90306002 -0.47485 -1.5052
-0.89810997 -0.47101 -1.5033
-0.89713001 -0.46430999 -1.5036
0.55278999 -0.043302 -1.51
0.64779997 -0.013038499 -1.50535
0.804708 0.0287774 -1.50422
0.815045 0.027511001 -1.5029999
0.82685 0.024511499 -1.502625
0.83628285 0.024765285 -1.5049715
0.79742998 0.031531002 -1.5051999
0.80473334 0.03378883 -1.50675
0.81197333 0.031025669 -1.5048
0.82801002 0.030602001 -1.5081
-0.94811499 -0.49711502 -1.4949501
-0.76757002 -0.43054 -1.5
0.64823002 -0.024362501 -1.49755
0.815 0.019747 -1.4941
0.8228575 0.01973225 -1.4930251
0.83596998 0.017562 -1.49195
0.79760998 0.025502499 -1.4948249
0.8052755 0.024130847 -1.4944613
0.81591821 0.024388455 -1.4954182
0.82432836 0.024195334 -1.4968166
0.83703333 0.021787336 -1.4976667
0.84284002 0.026008001 -1.4992
-0.93453002 -0.50487 -1.4861
-0.94333333 -0.49567333 -1.4849334
-0.93798 -0.48541 -1.4868
-0.83244002 -0.47396001 -1.4871
-0.82766998 -0.47576001 -1.4832
0.64520001 -0.026236 -1.4809
0.79436201 0.017077599 -1.48368
0.80416006 0.016603859 -1.4845858
0.81544 0.015442501 -1.4829999
0.82664502 0.016410623 -1.4847126
0.83423829 0.016111249 -1.4844418
0.81511998 0.025832999 -1.4891
0.82207 0.021152999 -1.4893
-0.94438601 -0.50726807 -1.4729198
-0.93295997 -0.50660998 -1.4766999
-0.91530502 -0.50764 -1.4774001
-0.90167999 -0.50426 -1.4746
-0.94139999 -0.49833 -1.4766001
-0.93832999 -0.49816999 -1.4713
-0.92597997 -0.49753001 -1.4792
-0.91697001 -0.49015 -1.4713
-0.89600003 -0.49188501 -1.4742999
0.66349 -0.046675 -1.4747
0.64840496 -0.034174502 -1.4755001
0.81714004 0.0087389993 -1.4722333
0.82345998 0.0092496499 -1.4739
0.80665141 0.015417 -1.4753286
0.81555855 0.013860143 -1.4734429
0.82344496 0.012519 -1.475125
-0.93730998 -0.51084 -1.4651
-0.94119 -0.50779003 -1.4612
-0.93229002 -0.49522999 -1.4675
-0.73457503 -0.447615 -1.4678
-0.72296 -0.44797 -1.4612
0.65720999 -0.050652999 -1.46085
0.64898002 -0.041870002 -1.4601001
0.66441399 -0.045488402 -1.4645201
0.65820003 -0.036113001 -1.46305
0.80689001 0.0077679004 -1.4638667
0.81432748 0.0073839999 -1.465675
0.82352 0.0092035998 -1.4665999
0.79423499 0.0113025 -1.4684501
0.80547792 0.012102 -1.4670601
0.81085998 0.011959 -1.4680001
-0.88935 -0.51072001 -1.4554
-0.92821002 -0.50910002 -1.4554
-0.91640002 -0.50840002 -1.4581
-0.89278001 -0.50348997 -1.4583
-0.88688999 -0.50784999 -1.4518
-0.89179999 -0.49425 -1.4597
-0.72133505 -0.46398503 -1.4558001
-0.72377998 -0.45875999 -1.4597
-0.72696 -0.44244999 -1.4586999
0.66856003 -0.050505999 -1.4566
0.67606002 -0.053497002 -1.4562
0.65331799 -0.041237403 -1.4581001
0.66499996 -0.046129599 -1.45698
0.80528378 0.0032211156 -1.4553692
0.81459874 0.0042954613 -1.4556
-0.92514002 -0.52907997 -1.4428
-0.93485999 -0.51264 -1.4425
-0.89561999 -0.51112998 -1.443
-0.79500002 -0.49304 -1.4418
-0.71518666 -0.45681334 -1.4448667
0.66580999 -0.050159998 -1.4467
0.67048502 -0.052422501 -1.4467499
0.68251997 -0.058727998 -1.4434
0.665555 -0.047970504 -1.4463
0.80612004 -0.0011289499 -1.44885
0.81039 -0.001128 -1.4477
0.81097001 0.0031876001 -1.4485
-0.89112997 -0.51994997 -1.4315
-0.78479999 -0.49746001 -1.4315
-0.71555001 -0.46621999 -1.4382
-0.70946997 -0.45116001 -1.4355
0.68292999 -0.061383002 -1.4337
0.66886401 -0.052788801 -1.4362
0.67341501 -0.054563001 -1.4334999
0.68199998 -0.058837663 -1.4340334
0.66297001 -0.047478598 -1.43566
-0.92522001 -0.53621 -1.4227
-0.91442001 -0.51710999 -1.4279
-0.7845 -0.49243 -1.4263
0.67896998 -0.060885001 -1.4220999
0.68874663 -0.062963672 -1.4246334
0.69346499 -0.065215006 -1.4230499
0.70261002 -0.069288999 -1.4201
0.67534751 -0.054267064 -1.4239876
0.68077999 -0.056652501 -1.4253
-0.94808 -0.54563999 -1.4129
-0.93035001 -0.54491001 -1.411
-0.93206 -0.53496504 -1.415
-0.89054 -0.53346002 -1.4195
-0.88804001 -0.53618002 -1.4138
-0.71020001 -0.48394001 -1.4198
0.70515501 -0.070577994 -1.4167
0.67808002 -0.060608 -1.4155999
0.68719858 -0.061883859 -1.4162284
0.69322628 -0.063882999 -1.4139625
0.703605 -0.068512753 -1.41185
0.71818 -0.067323998 -1.4103
0.68346626 -0.054847814 -1.4148844
0.69465292 -0.056872718 -1.4121572
0.70112002 -0.053979002 -1.41345
-0.94147998 -0.53925002 -1.4097
-0.88404 -0.53777999 -1.4058
-0.76811999 -0.49132001 -1.4046
0.48104 -0.12476 -1.405
0.7067225 -0.071423247 -1.405575
0.71512669 -0.072509669 -1.4044999
0.69496942 -0.062826842 -1.4047999
0.70542151 -0.065766081 -1.4050307
0.7137906 -0.065854624 -1.4035438
0.70334053 -0.055071887 -1.4040942
0.71643996 -0.056134999 -1.4016334
0.75756001 -0.043037999 -1.4037
-0.93123001 -0.55768001 -1.3903
-0.92515999 -0.55155998 -1.3993
-0.85868001 -0.54440498 -1.391
-0.86177999 -0.53368002 -1.3951
-0.76589 -0.49122 -1.3999
-0.69209504 -0.49368 -1.3937
0.71472168 -0.072139002 -1.39745
0.72535497 -0.073589675 -1.394125
0.69501334 -0.063532673 -1.3968
0.70494795 -0.064673401 -1.3984799
0.71568286 -0.065092616 -1.3947953
0.7247141 -0.063821249 -1.3932167
0.73329705 -0.065516286 -1.3923427
0.75009 -0.063785002 -1.3918
0.69861001 -0.059912998 -1.3994
0.72439945 -0.055629175 -1.3934706
0.734887 -0.053648103 -1.3955901
0.74212998 -0.051983166 -1.3946667
0.77135003 -0.048300497 -1.393
-0.93425 -0.55788499 -1.38695
-0.92834002 -0.55659997 -1.3857
-0.93778998 -0.54881001 -1.3882
-0.87119001 -0.54579997 -1.3846
-0.85636002 -0.53465998 -1.3845
0.72769243 -0.073410086 -1.3862082
0.73465729 -0.073854551 -1.3854817
0.74421233 -0.074728563 -1.38428
0.75481504 -0.075284414 -1.3829917
0.71701998 -0.068243675 -1.3891667
0.7254914 -0.065849647 -1.3872786
0.73575103 -0.064535446 -1.386005
0.74540001 -0.064522997 -1.38394
0.75557458 -0.064916186 -1.3819636
0.75522602 -0.054564059 -1.3833901
0.76403004 -0.053582001 -1.38366
-0.92022002 -0.55638999 -1.3716
-0.91789001 -0.55693001 -1.3729
-0.84946001 -0.53432 -1.3715
-0.68111998 -0.49575999 -1.3733667
-0.67975998 -0.49955001 -1.3753
-0.68531001 -0.486195 -1.37695
0.72968 -0.070129998 -1.3799
0.73184001 -0.070056997 -1.3785
0.74580801 -0.071614005 -1.37766
0.75597954 -0.075089447 -1.37615
0.762205 -0.077556752 -1.3773751
0.72802001 -0.068627 -1.3775001
0.73703998 -0.065218002 -1.3794501
0.74554288 -0.064936928 -1.3770572
0.75637525 -0.064558297 -1.3755
0.76105165 -0.066695504 -1.3758501
0.7617383 -0.056582 -1.3780667
-0.91759998 -0.56314999 -1.3642
-0.92541999 -0.55848998 -1.3685
-0.67775893 -0.50529784 -1.3647221
-0.67873132 -0.49533248 -1.3636749
-0.67958403 -0.48562202 -1.3641599
0.4499 -0.17647 -1.365
0.45421001 -0.15716 -1.3654
0.75459999 -0.080471002 -1.3697
0.75731999 -0.073569 -1.3694
0.75731999 -0.061461002 -1.37
-0.72382253 -0.52344751 -1.355625
-0.67609888 -0.50601554 -1.3545998
-0.67738599 -0.49489602 -1.3555801
0.52054 -0.15003 -1.3511
0.52629 -0.13590001 -1.3587
-0.72508001 -0.51104999 -1.3476
0.43685001 -0.18148001 -1.3403
-0.93273002 -0.58248997 -1.3348
-0.91736001 -0.57915998 -1.3346
-0.77648997 -0.55674666 -1.3339
0.43605 -0.17587 -1.3392
-0.91852999 -0.59263331 -1.327
-0.92543 -0.58143002 -1.3255
-0.91471004 -0.58407998 -1.32775
-0.78419501 -0.56462002 -1.3245001
-0.77842999 -0.56040001 -1.3204
-0.77743495 -0.55879748 -1.3235
0.42791 -0.1876 -1.3247
0.49061 -0.18993001 -1.3228
-0.93533003 -0.59340501 -1.31515
-0.91526669 -0.59750003 -1.3153667
-0.91096663 -0.58528334 -1.3152333
-0.90834999 -0.58517998 -1.3162
-0.84078002 -0.57929999 -1.3134
-0.82730001 -0.57690001 -1.3115
-0.78248423 -0.56420428 -1.3161286
-0.77657002 -0.56035 -1.3166
-0.82084 -0.55817997 -1.3186001
-0.78069001 -0.55993003 -1.3193001
-0.77749997 -0.55848998 -1.3193001
0.41354668 -0.21551333 -1.3138666
0.48752001 -0.18780001 -1.3167
-0.93344003 -0.60336 -1.3074
-0.93624002 -0.59656 -1.3098
-0.90688998 -0.59004003 -1.306
-0.83379 -0.58769 -1.3077
-0.81663501 -0.580145 -1.3066001
-0.79832 -0.58025998 -1.3051
-0.82511002 -0.57323998 -1.3032
-0.79257995 -0.57685 -1.3009
-0.78636336 -0.57136995 -1.3024668
-0.78491664 -0.56792331 -1.3068833
0.40632999 -0.22838999 -1.3023
0.47560999 -0.20615 -1.3052
-0.91696 -0.59753001 -1.2981
-0.83231002 -0.59148997 -1.2917
-0.831065 -0.58212501 -1.2936
-0.80178666 -0.58688664 -1.2954999
-0.79751003 -0.58051997 -1.2917
-0.82165003 -0.57336003 -1.2965
-0.80834001 -0.57863998 -1.291
-0.79293996 -0.57740337 -1.2917
-0.78788495 -0.57230002 -1.2993
-0.78622001 -0.56909001 -1.2973
0.40258399 -0.225806 -1.2927201
0.40566999 -0.21623001 -1.29425
-0.91373503 -0.61669004 -1.2835
-0.90412998 -0.61149001 -1.2875333
-0.8955 -0.61509001 -1.2852499
-0.90711749 -0.60783756 -1.2871499
-0.89839 -0.60128999 -1.2859
-0.801085 -0.59415495 -1.2839501
-0.81523001 -0.58587998 -1.2898
-0.80224502 -0.58933997 -1.287075
-0.79399002 -0.58219498 -1.28685
-0.81277502 -0.574875 -1.2843
-0.79312003 -0.57875502 -1.2895501
-0.78922999 -0.57542002 -1.289
0.40238217 -0.23402108 -1.2849333
0.4022131 -0.22418386 -1.2840538
-0.93874002 -0.62059999 -1.2702
-0.93983001 -0.61826998 -1.2786
-0.91004002 -0.61785001 -1.2711
-0.90701997 -0.61857998 -1.2709
-0.90366 -0.60888004 -1.2733666
-0.83104002 -0.60887003 -1.2755001
-0.81510997 -0.60245001 -1.2732999
-0.81278002 -0.59696001 -1.2799
-0.80480999 -0.59814 -1.2723
-0.79710001 -0.59002 -1.2751
-0.82283998 -0.58842999 -1.275
-0.8053 -0.58380997 -1.2741749
-0.79751331 -0.5870567 -1.2754
-0.7948575 -0.57565749 -1.2758
0.40275115 -0.22486353 -1.2744117
-0.88214999 -0.62494504 -1.2648001
-0.90406001 -0.61211002 -1.2689
-0.89810002 -0.61646998 -1.2618001
-0.88326001 -0.61265999 -1.27
-0.81645 -0.60078001 -1.2682
-0.80541003 -0.60276997 -1.2627
-0.82304001 -0.59667999 -1.2659
-0.81199002 -0.59372997 -1.2629
-0.81098998 -0.58912998 -1.2631
-0.78983003 -0.58710003 -1.262
-0.90196002 -0.62747997 -1.2523
-0.901425 -0.61881995 -1.2556
-0.86824501 -0.61788499 -1.25685
-0.80831999 -0.61566001 -1.2508
-0.82154 -0.60562003 -1.2588
-0.80711001 -0.60943002 -1.2572
-0.79054999 -0.58797002 -1.2574
0.422575 -0.24281001 -1.2590833
0.43823999 -0.240235 -1.2595
-0.90289003 -0.63572997 -1.2461001
-0.86501002 -0.63652003 -1.2471499
-0.89438999 -0.62184 -1.2472
-0.85927999 -0.62304997 -1.2434
-0.86843002 -0.61816001 -1.2460999
-0.80890995 -0.61527008 -1.2446333
-0.79467499 -0.61591995 -1.2464499
-0.81253999 -0.60255003 -1.243
-0.80287999 -0.60901999 -1.2434
-0.79076999 -0.60727 -1.2429
-0.80721003 -0.59662998 -1.2467
-0.79725999 -0.59944999 -1.2427
-0.94352144 -0.6435371 -1.234643
-0.89726752 -0.63719499 -1.2350249
-0.85501999 -0.63441002 -1.2352999
-0.84963 -0.63709003 -1.235
-0.81152999 -0.62515002 -1.23825
-0.80526501 -0.62334663 -1.2362833
-0.80671668 -0.61543328 -1.2364999
-0.78979999 -0.61646998 -1.2364
-0.76320451 -0.61486661 -1.23403
-0.80776662 -0.60501337 -1.2363
-0.79553998 -0.60372496 -1.2372
-0.78637999 -0.60993999 -1.2329
-0.84384501 -0.641895 -1.2272
-0.893085 -0.63716 -1.2263501
-0.81419998 -0.62764001 -1.2280999
-0.80208004 -0.6242075 -1.22445
-0.76256001 -0.62112498 -1.2214999
-0.79498005 -0.61282665 -1.2260333
-0.78248 -0.61431003 -1.2229
-0.77211666 -0.61304998 -1.2214
-0.76494908 -0.61556882 -1.2251626
-0.78451097 -0.60553205 -1.2229
-0.76732004 -0.60960001 -1.2256501
-0.89614326 -0.65481502 -1.21525
-0.89118004 -0.64399505 -1.2141
-0.88795 -0.64727002 -1.212
-0.83345997 -0.64656001 -1.2107
-0.83089 -0.63747001 -1.2106
-0.81102329 -0.63555998 -1.2178999
-0.84439999 -0.625265 -1.2177
-0.80339998 -0.62489998 -1.2197
-0.77285999 -0.62186998 -1.2108999
-0.76519567 -0.62203044 -1.2143999
-0.75650877 -0.62443429 -1.2154813
-0.79069668 -0.61388999 -1.2170333
-0.78428137 -0.61334217 -1.2153571
-0.77316046 -0.61410856 -1.2154809
-0.76755691 -0.61563849 -1.2167846
-0.89170003 -0.65309 -1.2048
-0.88955998 -0.65375 -1.206
-0.88559335 -0.64440995 -1.2058333
-0.82344002 -0.64941001 -1.2067
-0.80717999 -0.64304501 -1.2063999
-0.83516002 -0.63516998 -1.209
-0.82157999 -0.63449001 -1.2000999
-0.80768001 -0.63938999 -1.2093
-0.76466244 -0.63411003 -1.2033749
-0.77194107 -0.62311554 -1.2034222
-0.76644546 -0.62368459 -1.2073462
-0.75683999 -0.62470001 -1.2077999
-0.79018003 -0.61637002 -1.2092
-0.7746886 -0.6157614 -1.2047932
-0.76994997 -0.61707997 -1.2075
-0.88792342 -0.66639 -1.1943666
-0.89007002 -0.65930003 -1.1985
-0.82460999 -0.65354002 -1.19835
-0.82729 -0.64649999 -1.199
-0.81326002 -0.64399999 -1.1900001
-0.80830997 -0.64924997 -1.1997
-0.82659 -0.63543999 -1.1981499
-0.80015999 -0.63932002 -1.1947
-0.77131337 -0.63713664 -1.1922666
-0.76745528 -0.63430309 -1.1949
-0.77475959 -0.62418431 -1.1940858
-0.76541746 -0.62612498 -1.1949999
-0.75121999 -0.62427002 -1.1935
-0.74208999 -0.62849498 -1.19495
-0.73693001 -0.62548 -1.197
-0.75686002 -0.61996001 -1.1961
-0.74226999 -0.61680001 -1.1900001
-0.8837955 -0.6656667 -1.1838778
-0.88120335 -0.65797669 -1.1835667
-0.87926 -0.65640998 -1.1863
-0.80488998 -0.65161002 -1.1862
-0.81310499 -0.64293003 -1.1821001
-0.8056733 -0.64592999 -1.1834667
-0.79773998 -0.64230001 -1.1828001
-0.77377927 -0.64180535 -1.1831533
-0.80817002 -0.639 -1.183
-0.77220082 -0.63678461 -1.1861923
-0.76980001 -0.63207 -1.1881
-0.76537001 -0.62539124 -1.1841
-0.75430501 -0.62219501 -1.1868999
-0.72712505 -0.62497497 -1.18205
-0.73782003 -0.61641002 -1.1865
-0.8861779 -0.67631358 -1.1758944
-0.87921 -0.67366999 -1.1712
-0.88138002 -0.66992998 -1.1772
-0.877855 -0.66325498 -1.1747
-0.80817002 -0.66079998 -1.1709
-0.81071001 -0.65372998 -1.1798
-0.78065002 -0.65280998 -1.1763999
-0.7755928 -0.6548506 -1.1738744
-0.81077999 -0.64784002 -1.1777
-0.80400002 -0.64809 -1.1781499
-0.79388666 -0.64135665 -1.1758333
-0.77676332 -0.64553785 -1.1754179
-0.79126 -0.63502997 -1.17738
-0.77388048 -0.6346752 -1.1738383
-0.76958001 -0.63204002 -1.1766
-0.72186416 -0.63555914 -1.1726999
-0.71939665 -0.63209003 -1.1730666
-0.72242498 -0.62141669 -1.1748333
-0.7183066 -0.62437832 -1.1710167
-0.8819012 -0.67251182 -1.1672471
-0.87835222 -0.67119336 -1.1657444
-0.88048339 -0.66876334 -1.1638666
-0.81391162 -0.66793174 -1.1651666
-0.80923998 -0.66354001 -1.166
-0.80270666 -0.65246338 -1.1686333
-0.79693002 -0.65051001 -1.1603
-0.78644091 -0.65200907 -1.1632453
-0.77769476 -0.65502924 -1.1659081
-0.80155003 -0.64376998 -1.1675999
-0.79245675 -0.64504558 -1.1643
-0.78636426 -0.6440981 -1.163179
-0.77688533 -0.64490539 -1.1651537
-0.72452223 -0.64524472 -1.1668411
-0.7219525 -0.63806248 -1.168175
-0.71854246 -0.63402247 -1.167275
-0.721295 -0.62514997 -1.16945
-0.71876502 -0.62623 -1.16915
-0.72139502 -0.61978 -1.1697
-0.81118125 -0.66646874 -1.1570874
-0.80621403 -0.66423678 -1.1536347
-0.79542512 -0.66251242 -1.1508936
-0.78256172 -0.66512817 -1.1556
-0.77921999 -0.6627875 -1.15125
-0.80117929 -0.65798855 -1.1542571
-0.79588717 -0.65590405 -1.1526845
-0.78403568 -0.65400213 -1.1541047
-0.77717882 -0.65414762 -1.153188
-0.77628857 -0.64528728 -1.156431
-0.80143785 -0.66193742 -1.1484741
-0.7953437 -0.66191769 -1.1480777
-0.78384125 -0.66120666 -1.1470532
-0.7776981 -0.66105348 -1.1464297
-0.80126667 -0.65952665 -1.1473666
-0.79490972 -0.65827364 -1.1477838
-0.78373486 -0.65715778 -1.1442325
-0.77638668 -0.65746278 -1.1438136
